VERSION .7
FIELDS x y z rgb label object
SIZE 4 4 4 4 4 4
TYPE F F F I I I
COUNT 1 1 1 1 1 1
WIDTH 637
HEIGHT 1
POINTS 637
VIEWPOINT 0 0 0 1 0 0 0
DATA ascii
-0.14518116414546967 0.040920279920101166 -0.32007619738578796 5657167 0 -1
-0.1451745182275772 0.04067612066864967 -0.32008111476898193 5722960 0 -1
-0.1451614946126938 0.040188081562519073 -0.3200916349887848 5525581 0 -1
-0.14493447542190552 0.03988347575068474 -0.319610595703125 5723217 0 -1
-0.14492782950401306 0.039639946073293686 -0.31961557269096375 5920339 0 -1
-0.14492139220237732 0.039396535605192184 -0.31962090730667114 5920339 0 -1
-0.1449146866798401 0.039153121411800385 -0.31962573528289795 5986132 0 -1
-0.1451595425605774 0.03897731378674507 -0.32018542289733887 6051925 0 -1
-0.1449020951986313 0.03866669535636902 -0.31963711977005005 6117974 0 -1
-0.14489561319351196 0.038423534482717514 -0.31964242458343506 6183510 0 -1
-0.14491845667362213 0.038188155740499496 -0.31971240043640137 6183511 0 -1
-0.14490582048892975 0.03770214319229126 -0.31972378492355347 6051925 0 -1
-0.14489944279193878 0.03745920956134796 -0.3197292983531952 5986132 0 -1
-0.14489339292049408 0.0372164286673069 -0.3197355568408966 5854546 0 -1
-0.14488713443279266 0.036973658949136734 -0.3197413682937622 5591631 0 -1
-0.14488118886947632 0.03673103079199791 -0.3197478652000427 5525838 0 -1
-0.14490289986133575 0.036495428532361984 -0.31981539726257324 5657167 0 -1
-0.14486925303936005 0.03624594956636429 -0.3197607398033142 5657167 0 -1
-0.14463922381401062 0.03594781458377838 -0.31927260756492615 5460045 0 -1
-0.14462706446647644 0.03546380251646042 -0.31928500533103943 5591374 0 -1
-0.14464789628982544 0.03522844240069389 -0.31935057044029236 5525581 0 -1
-0.14464178681373596 0.03498654067516327 -0.31935665011405945 5196873 0 -1
-0.14463576674461365 0.03474472463130951 -0.319362998008728 4999495 0 -1
-0.1443786323070526 0.03444306552410126 -0.31881478428840637 4999238 0 -1
-0.14436674118041992 0.03396061435341835 -0.31882768869400024 5328458 0 -1
-0.14438654482364655 0.033725496381521225 -0.3188909888267517 5196873 0 -1
-0.1443806141614914 0.03348439186811447 -0.3188975155353546 4933444 0 -1
-0.14437471330165863 0.03324335068464279 -0.3189040422439575 4801858 0 -1
-0.14436890184879303 0.03300239145755768 -0.3189108073711395 4801859 0 -1
-0.14436306059360504 0.03276149928569794 -0.31891751289367676 4801859 0 -1
-0.14435747265815735 0.03252071142196655 -0.31892475485801697 4801858 0 -1
-0.14435184001922607 0.03227998688817024 -0.31893190741539 4736322 0 -1
-0.14437051117420197 0.03204471245408058 -0.3189927637577057 4670530 0 -1
-0.1441078782081604 0.031508516520261765 -0.31845158338546753 4670272 0 -1
-0.14410215616226196 0.031268391758203506 -0.31845852732658386 4538943 0 -1
-0.14409123361110687 0.03078843466937542 -0.3184735178947449 4407614 0 -1
-0.14408570528030396 0.03054853528738022 -0.31848087906837463 4473151 0 -1
-0.14410316944122314 0.030313534662127495 -0.3185390830039978 4473150 0 -1
-0.1440977305173874 0.030073732137680054 -0.3185465931892395 4407358 0 -1
-0.1440924108028412 0.029834022745490074 -0.31855446100234985 4538943 0 -1
-0.1440870761871338 0.029594365507364273 -0.31856223940849304 4736065 0 -1
-0.14408187568187714 0.029354801401495934 -0.3185703456401825 4933444 0 -1
-0.1440766602754593 0.02911529131233692 -0.31857842206954956 5131080 0 -1
-0.14383122324943542 0.02835182473063469 -0.318094402551651 5196616 0 -1
-0.14407753944396973 0.028162099421024323 -0.318658709526062 5130824 0 -1
-0.14382103085517883 0.027874154970049858 -0.31811097264289856 5130824 0 -1
-0.1438160240650177 0.027635421603918076 -0.31811943650245667 5065032 0 -1
-0.1438315212726593 0.027400659397244453 -0.31817328929901123 9013124 0 -1
-0.143826425075531 0.02716199867427349 -0.3181816041469574 13487048 0 -1
-0.1438213586807251 0.02692340314388275 -0.31818997859954834 13421256 0 -1
-0.14381641149520874 0.026684891432523727 -0.3181985914707184 12960705 0 -1
-0.14382117986679077 0.02597324177622795 -0.3182678520679474 6446940 0 -1
-0.14381635189056396 0.025734953582286835 -0.3182767629623413 6315097 0 -1
-0.14381155371665955 0.025496728718280792 -0.31828573346138 6380889 0 -1
-0.14380688965320587 0.025258582085371017 -0.3182950019836426 6446426 0 -1
-0.14380234479904175 0.025020522996783257 -0.31830450892448425 6249047 0 -1
-0.14355981349945068 0.02450472116470337 -0.31780678033828735 6183510 0 -1
-0.14355510473251343 0.02426718920469284 -0.317815899848938 6315096 0 -1
-0.14354154467582703 0.023555034771561623 -0.31784456968307495 6051668 0 -1
-0.14353717863559723 0.023317789658904076 -0.31785446405410767 5920082 0 -1
-0.14379708468914032 0.022886227816343307 -0.31846919655799866 5723216 0 -1
-0.14378851652145386 0.022411279380321503 -0.3184894323348999 5854802 0 -1
-0.14378362894058228 0.021227344870567322 -0.3185766041278839 5328202 0 -1
-0.14377948641777039 0.02099023573100567 -0.3185870349407196 5328202 0 -1
-0.14379049837589264 0.02075536921620369 -0.31863105297088623 5196616 0 -1
-0.1437865048646927 0.020518364384770393 -0.3186417818069458 5065287 0 -1
-0.14377856254577637 0.020044535398483276 -0.31866341829299927 5196872 0 -1
-0.14377331733703613 0.018862854689359665 -0.3187497854232788 5130823 0 -1
-0.144031822681427 0.018423842266201973 -0.31936225295066833 4933444 0 -1
-0.14401549100875854 0.01818537898361683 -0.3193456828594208 4867651 0 -1
-0.14402082562446594 0.01771341636776924 -0.31939682364463806 4867651 0 -1
-0.1440155953168869 0.016531972214579582 -0.3194834291934967 4933701 1 -1
-0.14400921761989594 0.016059238463640213 -0.3195085823535919 5327945 1 -1
-0.14401037991046906 0.015351681970059872 -0.3195701241493225 5328202 1 -1
-0.14400504529476166 0.014172532595694065 -0.3196565806865692 5328459 1 -1
-0.14399920403957367 0.013700841926038265 -0.31968289613723755 5460044 1 -1
-0.14400233328342438 0.013230185024440289 -0.31972917914390564 5460045 1 -1
-0.14399956166744232 0.01299451757222414 -0.3197426199913025 5460045 1 -1
-0.14399421215057373 0.011817666701972485 -0.31982898712158203 6117717 1 -1
-0.14398899674415588 0.01134700607508421 -0.319856733083725 6512475 1 -1
-0.14398667216300964 0.011111773550510406 -0.3198712468147278 6578268 1 -1
-0.14398448169231415 0.010876599699258804 -0.3198859989643097 6446939 1 -1
-0.14398223161697388 0.010641472414135933 -0.31990066170692444 6381146 1 -1
-0.14397966861724854 0.009701890870928764 -0.31997352838516235 5986132 1 -1
-0.14397773146629333 0.009467020630836487 -0.319988876581192 5591630 1 -1
-0.1439809948205948 0.009232532232999802 -0.3200157582759857 5460301 1 -1
-0.14397890865802765 0.008997741155326366 -0.3200307786464691 5525838 1 -1
-0.14397983253002167 0.008528608828783035 -0.32007211446762085 5591631 1 -1
-0.14397335052490234 0.008293702267110348 -0.3200773298740387 5591374 1 -1
-0.14397041499614716 0.00735588651150465 -0.32014939188957214 5130823 1 -1
-0.14371532201766968 0.006641302723437548 -0.3196409344673157 4670529 1 -1
-0.14345458149909973 0.004996731411665678 -0.3191979229450226 4999237 1 -1
-0.14345334470272064 0.0047636390663683414 -0.31921470165252686 5065030 1 -1
-0.1434534788131714 0.004530635662376881 -0.31923454999923706 4999237 1 -1
-0.14319929480552673 0.004290054086595774 -0.31868842244148254 4999236 1 -1
-0.1431972235441208 0.003825016086921096 -0.3187228739261627 4999237 1 -1
-0.1431928128004074 0.0026632158551365137 -0.3188105821609497 5327945 0 -1
-0.14293813705444336 0.0021949203219264746 -0.31828248500823975 5065030 0 -1
-0.14293739199638367 0.001963192131370306 -0.3183002769947052 4867651 0 -1
-0.14293597638607025 0.001499867532402277 -0.3183360993862152 4867908 0 -1
-0.14292864501476288 -0.00012040717410854995 -0.31845593452453613 5262410 0 -1
-0.14267627894878387 -0.0003510798269417137 -0.31791308522224426 5460044 0 -1
-0.14267593622207642 -0.0008127265027724206 -0.31795111298561096 7234889 0 -1
-0.14242057502269745 -0.001962617039680481 -0.3174789249897003 8483648 0 -1
-0.14241647720336914 -0.0026528635062277317 -0.3175278306007385 5920073 0 -1
-0.14241668581962585 -0.0028828883077949286 -0.31754767894744873 7892036 0 -1
-0.14241380989551544 -0.004262084141373634 -0.31765738129615784 6840394 0 -1
-0.14216332137584686 -0.004483919125050306 -0.31711795926094055 5657423 0 -1
-0.14215798676013947 -0.004942276515066624 -0.31714463233947754 5525838 0 -1
-0.14215244352817535 -0.005400432739406824 -0.3171708881855011 5591374 0 -1
-0.1421605795621872 -0.005629869643598795 -0.31720831990242004 5459531 0 -1
-0.1418980360031128 -0.006533895619213581 -0.3166995048522949 5722703 0 -1
-0.14189448952674866 -0.0076758419163525105 -0.3167877495288849 5525838 0 -1
-0.14163538813591003 -0.009483826346695423 -0.31636279821395874 4802115 0 -1
-0.1416478157043457 -0.009712252765893936 -0.31640976667404175 4867908 0 -1
-0.14164023101329803 -0.010166781023144722 -0.3164311349391937 5065030 0 -1
-0.14138852059841156 -0.0112836305052042 -0.3159644305706024 4867651 0 -1
-0.14138025045394897 -0.011736639775335789 -0.31598418951034546 5131080 0 -1
-0.14138247072696686 -0.011963604018092155 -0.31600823998451233 5262409 0 -1
-0.14137376844882965 -0.012416285462677479 -0.3160270154476166 5130566 0 -1
-0.1411222368478775 -0.01352505199611187 -0.31556007266044617 5262667 0 -1
-0.14112991094589233 -0.014203878119587898 -0.3156343698501587 4999751 0 -1
-0.14087994396686554 -0.01643255166709423 -0.3152652382850647 5328716 0 -1
-0.1408831626176834 -0.016658106818795204 -0.3152914047241211 5525838 0 -1
-0.14087288081645966 -0.018231982365250587 -0.3154011070728302 5460045 0 -1
-0.14061768352985382 -0.018872207030653954 -0.3148864805698395 5591374 0 -1
-0.1406063288450241 -0.01931929960846901 -0.31489887833595276 5459788 0 -1
-0.1403588056564331 -0.02040419727563858 -0.31443876028060913 4933701 0 -1
-0.1403713822364807 -0.02107698656618595 -0.31452345848083496 4802116 0 -1
-0.139872208237648 -0.022783273831009865 -0.3135550022125244 4604736 0 -1
-0.13985969126224518 -0.023226140066981316 -0.3135644197463989 4736065 0 -1
-0.1398513913154602 -0.023891804739832878 -0.3136020004749298 4999238 0 -1
-0.13937832415103912 -0.025582147762179375 -0.3126903474330902 5196616 0 -1
-0.13935944437980652 -0.025799883529543877 -0.3126665949821472 5196617 0 -1
-0.13937033712863922 -0.026244228705763817 -0.31272825598716736 5262409 0 -1
-0.14489960670471191 0.04115138575434685 -0.3200233578681946 5262410 0 -1
-0.14463557302951813 0.04059280455112457 -0.3194792568683624 5788496 0 -1
-0.14462241530418396 0.04010573402047157 -0.3194892406463623 5722703 0 -1
-0.14464640617370605 0.039870716631412506 -0.31956174969673157 5920596 0 -1
-0.1446397453546524 0.03962727263569832 -0.3195665776729584 6052182 0 -1
-0.1446332484483719 0.03938392549753189 -0.31957173347473145 5854803 0 -1
-0.1446266919374466 0.03914063796401024 -0.31957677006721497 5789010 0 -1
-0.1446138620376587 0.03865432366728783 -0.3195875287055969 6117974 0 -1
-0.1446075737476349 0.03841129690408707 -0.3195931315422058 6183767 0 -1
-0.14463040232658386 0.03817601874470711 -0.3196631371974945 6117975 0 -1
-0.14461763203144073 0.03769013658165932 -0.319674015045166 5920339 0 -1
-0.14461134374141693 0.03744731843471527 -0.3196796774864197 5920340 0 -1
-0.14460505545139313 0.0372045561671257 -0.31968531012535095 5854547 0 -1
-0.14434801042079926 0.036897771060466766 -0.3191365897655487 5657424 0 -1
-0.1443636417388916 0.03642052784562111 -0.3192102015018463 5920339 0 -1
-0.14432986080646515 0.036171507090330124 -0.3191550374031067 5854803 0 -1
-0.14435115456581116 0.03593635559082031 -0.31922170519828796 5591631 0 -1
-0.1443389505147934 0.035452503710985184 -0.319233775138855 5525838 0 -1
-0.14435975253582 0.03521723672747612 -0.3192993402481079 5459788 0 -1
-0.14435379207134247 0.03497546166181564 -0.3193057179450989 5196873 0 -1
-0.14434760808944702 0.034733690321445465 -0.31931155920028687 5131080 0 -1
-0.14434178173542023 0.03449207544326782 -0.3193182945251465 5065288 0 -1
-0.14407886564731598 0.03394981101155281 -0.31877565383911133 5460045 0 -1
-0.14409862458705902 0.03371478244662285 -0.3188389241695404 5328458 0 -1
-0.14409266412258148 0.03347375988960266 -0.318845272064209 4933444 0 -1
-0.1440868377685547 0.03323282301425934 -0.31885188817977905 4736066 0 -1
-0.14408093690872192 0.032991938292980194 -0.31885838508605957 4670273 0 -1
-0.1440752148628235 0.03275115415453911 -0.31886526942253113 4670529 0 -1
-0.14406944811344147 0.0325104221701622 -0.31887203454971313 4736066 0 -1
-0.144063800573349 0.03226977959275246 -0.31887906789779663 4604736 0 -1
-0.1440824717283249 0.032034602016210556 -0.3189399540424347 4473151 0 -1
-0.1438257396221161 0.031738635152578354 -0.31839117407798767 4473150 0 -1
-0.14407116174697876 0.03155353665351868 -0.3189539909362793 4538943 0 -1
-0.14381445944309235 0.03125853091478348 -0.3184052109718323 4538687 0 -1
-0.14380338788032532 0.03077872470021248 -0.31841975450515747 4473407 0 -1
-0.14379796385765076 0.030538935214281082 -0.3184272348880768 4604736 0 -1
-0.14381545782089233 0.030304037034511566 -0.3184854984283447 4604736 0 -1
-0.143809974193573 0.03006431832909584 -0.3184928894042969 4604736 0 -1
-0.14355376362800598 0.02977266162633896 -0.3179449737071991 4736066 0 -1
-0.143548384308815 0.02953350730240345 -0.31795257329940796 4867907 0 -1
-0.14354296028614044 0.029294399544596672 -0.3179600238800049 5065287 0 -1
-0.14353762567043304 0.02905537374317646 -0.3179677128791809 5262666 0 -1
-0.14354367554187775 0.02834300696849823 -0.3180396258831024 5196616 0 -1
-0.1435384899377823 0.02810421586036682 -0.3180476725101471 5065287 0 -1
-0.14353348314762115 0.027865519747138023 -0.3180560767650604 5131080 0 -1
-0.14352844655513763 0.027626873925328255 -0.318064421415329 5262410 0 -1
-0.14354391396045685 0.027392202988266945 -0.31811821460723877 9078661 0 -1
-0.14353859424591064 0.02715359441936016 -0.31812596321105957 13420999 0 -1
-0.14353375136852264 0.02691512741148472 -0.31813469529151917 13355463 0 -1
-0.1435288041830063 0.026676706969738007 -0.3181432783603668 12894912 0 -1
-0.14353369176387787 0.025965360924601555 -0.31821268796920776 6512476 0 -1
-0.14352864027023315 0.025727126747369766 -0.3182210326194763 6446425 0 -1
-0.1435239315032959 0.02548901177942753 -0.3182300925254822 6446425 0 -1
-0.1432633250951767 0.024969173595309258 -0.31769126653671265 6183510 0 -1
-0.14327701926231384 0.024734823033213615 -0.31774112582206726 5920338 0 -1
-0.14325422048568726 0.02449423260986805 -0.3177100718021393 5986131 0 -1
-0.14325404167175293 0.023548010736703873 -0.31778767704963684 5920082 0 -1
-0.14324964582920074 0.02331085503101349 -0.3177974224090576 5920339 0 -1
-0.14326219260692596 0.023076487705111504 -0.31784477829933167 5722704 0 -1
-0.14325770735740662 0.02283940091729164 -0.3178543150424957 5525581 0 -1
-0.143249049782753 0.02236545830965042 -0.31787413358688354 5920596 0 -1
-0.14349564909934998 0.021221261471509933 -0.31851908564567566 5328459 0 -1
-0.14349167048931122 0.020984269678592682 -0.31852981448173523 5394252 0 -1
-0.14350265264511108 0.020749494433403015 -0.3185737133026123 5196873 0 -1
-0.1434984803199768 0.02051256038248539 -0.31858399510383606 5065287 0 -1
-0.1434905081987381 0.020038917660713196 -0.3186054229736328 5328202 0 -1
-0.14348529279232025 0.018857719376683235 -0.318691611289978 5328202 0 -1
-0.14349114894866943 0.018386583775281906 -0.3187437355518341 5196616 0 -1
-0.14347456395626068 0.018148595467209816 -0.31872648000717163 5065030 0 -1
-0.14373256266117096 0.017708785831928253 -0.31933876872062683 4933444 0 -1
-0.14372721314430237 0.016527805477380753 -0.3194248378276825 5065030 1 -1
-0.14372068643569946 0.01605525054037571 -0.3194495439529419 5262152 1 -1
-0.143721804022789 0.0153479790315032 -0.3195108473300934 5196617 1 -1
-0.14371640980243683 0.014169308356940746 -0.3195967972278595 5459789 1 -1
-0.14371053874492645 0.013697809539735317 -0.3196229636669159 5591630 1 -1
-0.14371371269226074 0.013227350078523159 -0.3196691870689392 5460045 1 -1
-0.1437108963727951 0.012991780415177345 -0.3196825385093689 5460045 1 -1
-0.14370550215244293 0.011815412901341915 -0.3197685182094574 6314839 1 -1
-0.1437004655599594 0.011344960890710354 -0.31979650259017944 6775390 1 -1
-0.14369572699069977 0.01087473426014185 -0.319825142621994 6512476 1 -1
-0.1436934769153595 0.010639703832566738 -0.3198397159576416 6446939 1 -1
-0.14369097352027893 0.009700522758066654 -0.31991252303123474 6051925 1 -1
-0.14368890225887299 0.00946574192494154 -0.31992748379707336 5460045 1 -1
-0.14369218051433563 0.009231354109942913 -0.31995436549186707 5393995 1 -1
-0.14369025826454163 0.008996671997010708 -0.31996968388557434 5459788 1 -1
-0.14343775808811188 0.00851269718259573 -0.31944650411605835 5722960 1 -1
-0.14343124628067017 0.008278300985693932 -0.31945157051086426 5657167 1 -1
-0.14342842996120453 0.007342539727687836 -0.3195234537124634 4933445 1 -1
-0.1434267908334732 0.006641204934567213 -0.31957846879959106 4670272 1 -1
-0.1431737095117569 0.0061630201525986195 -0.319053590297699 5327945 1 -1
-0.14316637814044952 0.004997326526790857 -0.31913474202156067 5130823 1 -1
-0.14291153848171234 0.004290947690606117 -0.3186250627040863 5262152 1 -1
-0.14290925860404968 0.0038261045701801777 -0.3186589181423187 5196616 1 -1
-0.1429082751274109 0.003593754256144166 -0.3186761438846588 4999237 1 -1
-0.14265049993991852 0.002196710556745529 -0.31821784377098083 4999237 0 -1
-0.14264975488185883 0.0019650841131806374 -0.3182356059551239 4801858 0 -1
-0.14264844357967377 0.0015019632410258055 -0.3182714879512787 4867908 0 -1
-0.14239265024662018 0.0003443051828071475 -0.31779763102531433 5196616 0 -1
-0.14238940179347992 -0.00011739245383068919 -0.31782910227775574 5328459 0 -1
-0.1423889845609665 -0.00034817520645447075 -0.31784752011299133 5460043 0 -1
-0.14238862693309784 -0.0008096174569800496 -0.3178854286670685 7432008 0 -1
-0.14213351905345917 -0.0019589988514781 -0.31741249561309814 8483647 0 -1
-0.1421336978673935 -0.0021890467032790184 -0.3174322247505188 6380363 0 -1
-0.14212939143180847 -0.0026489361189305782 -0.31746119260787964 5985865 0 -1
-0.1418788582086563 -0.002873778808861971 -0.31692081689834595 7892293 0 -1
-0.1418791264295578 -0.003103256691247225 -0.31694069504737854 9732669 0 -1
-0.14187964797019958 -0.0033327010460197926 -0.3169611394405365 11441198 0 -1
-0.14187657833099365 -0.004479169379919767 -0.317050576210022 5854802 0 -1
-0.14187128841876984 -0.004937320481985807 -0.3170772194862366 5723217 0 -1
-0.14186573028564453 -0.005395269021391869 -0.3171032965183258 5656911 0 -1
-0.1418738067150116 -0.005624600686132908 -0.3171406090259552 5459531 0 -1
-0.14161168038845062 -0.006528214551508427 -0.31663140654563904 5723216 0 -1
-0.14160604774951935 -0.007213017903268337 -0.31667637825012207 5525838 0 -1
-0.1413581818342209 -0.007656103931367397 -0.3161603808403015 5460044 0 -1
-0.14134931564331055 -0.00947678741067648 -0.3162936270236969 4736322 0 -1
-0.1413617581129074 -0.009705109521746635 -0.31634053587913513 4867651 0 -1
-0.1411047875881195 -0.010141502134501934 -0.3158036768436432 5262409 0 -1
-0.1411028355360031 -0.011275754310190678 -0.3158946931362152 4670529 0 -1
-0.14109472930431366 -0.011728568933904171 -0.31591466069221497 4933701 0 -1
-0.14109668135643005 -0.01195540465414524 -0.3159381151199341 5065287 0 -1
-0.14085228741168976 -0.012387145310640335 -0.31542888283729553 4999237 0 -1
-0.14083701372146606 -0.013516130857169628 -0.31548967957496643 5262666 0 -1
-0.14059819281101227 -0.016647694632411003 -0.315219908952713 5394252 0 -1
-0.14034022390842438 -0.0181887187063694 -0.3147736191749573 5328459 0 -1
-0.14033293724060059 -0.01886070892214775 -0.31481388211250305 5459788 0 -1
-0.14033682644367218 -0.01908547431230545 -0.31484144926071167 5459788 0 -1
-0.14032183587551117 -0.019307615235447884 -0.3148266077041626 5525581 0 -1
-0.1395680457353592 -0.023877881467342377 -0.3135281801223755 4933445 0 -1
-0.139076828956604 -0.025784987956285477 -0.3125919699668884 5196616 0 -1
-0.13884352147579193 -0.026183072477579117 -0.3121046721935272 4999238 0 -1
-0.14461801946163177 0.0413823276758194 -0.31997019052505493 5262667 0 -1
-0.14461125433444977 0.0411381758749485 -0.3199746906757355 5393996 0 -1
-0.14435435831546783 0.040823355317115784 -0.3194257616996765 5722703 0 -1
-0.14434780180454254 0.040579818189144135 -0.31943073868751526 5920081 0 -1
-0.14433448016643524 0.040092866867780685 -0.31944015622138977 5854289 0 -1
-0.14432792365550995 0.03984951600432396 -0.31944510340690613 6051668 0 -1
-0.14435173571109772 0.039614565670490265 -0.3195172846317291 6117718 0 -1
-0.1443452686071396 0.039371322840452194 -0.3195224702358246 5985876 0 -1
-0.1443386971950531 0.03912810981273651 -0.31952738761901855 5854802 0 -1
-0.14432577788829803 0.03864194080233574 -0.3195377290248871 6117974 0 -1
-0.14431945979595184 0.03839899227023125 -0.3195432424545288 6117975 0 -1
-0.14432957768440247 0.03767812252044678 -0.3196241557598114 6183511 0 -1
-0.14432314038276672 0.03743535280227661 -0.31962940096855164 6117462 0 -1
-0.14431683719158173 0.03719267621636391 -0.31963491439819336 6051668 0 -1
-0.1440601497888565 0.036885958164930344 -0.31908589601516724 5920339 0 -1
-0.14407573640346527 0.03640889376401901 -0.3191593885421753 5789009 0 -1
-0.14404188096523285 0.036159925162792206 -0.31910383701324463 5723216 0 -1
-0.14406318962574005 0.03592487797141075 -0.3191705644130707 5657167 0 -1
-0.14405091106891632 0.03544118255376816 -0.31918230652809143 5854289 0 -1
-0.14407172799110413 0.03520601987838745 -0.3192479610443115 5722959 0 -1
-0.1440657675266266 0.03496433049440384 -0.3192542493343353 5393995 0 -1
-0.14405959844589233 0.03472265228629112 -0.3192600607872009 5196873 0 -1
-0.14405368268489838 0.034481097012758255 -0.3192664384841919 5196617 0 -1
-0.1440417766571045 0.03399816155433655 -0.3192790746688843 5393995 0 -1
-0.1437852680683136 0.03369806334376335 -0.318729966878891 5328201 0 -1
-0.1438048630952835 0.033463120460510254 -0.3187928795814514 5065030 0 -1
-0.14379315078258514 0.03298147767782211 -0.31880587339401245 4867651 0 -1
-0.14378724992275238 0.03274074196815491 -0.3188122808933258 4736066 0 -1
-0.14352533221244812 0.03220333531498909 -0.3182704448699951 4604736 0 -1
-0.14351965487003326 0.03196325525641441 -0.3182772994041443 4604479 0 -1
-0.14353808760643005 0.03172856196761131 -0.318337619304657 4604480 0 -1
-0.14353252947330475 0.03148858621716499 -0.31834474205970764 4670272 0 -1
-0.14352671802043915 0.03124862164258957 -0.3183513283729553 4604736 0 -1
-0.14351582527160645 0.03076903708279133 -0.3183661103248596 4604736 0 -1
-0.1432599127292633 0.030476048588752747 -0.3178178369998932 4604737 0 -1
-0.1432773321866989 0.030241645872592926 -0.3178759217262268 4604736 0 -1
-0.143271803855896 0.030002430081367493 -0.31788310408592224 4604736 0 -1
-0.14326639473438263 0.029763292521238327 -0.31789055466651917 4867651 0 -1
-0.1432608813047409 0.029524199664592743 -0.3178977370262146 5130823 0 -1
-0.14325544238090515 0.02928517758846283 -0.31790509819984436 5262409 0 -1
-0.14325030148029327 0.029046282172203064 -0.3179131746292114 5393995 0 -1
-0.14325611293315887 0.028334153816103935 -0.317984402179718 5131080 0 -1
-0.14325085282325745 0.028095440939068794 -0.3179922103881836 5262410 0 -1
-0.1432458907365799 0.027856837958097458 -0.3180006146430969 5328459 0 -1
-0.1432408094406128 0.027618279680609703 -0.31800878047943115 5394252 0 -1
-0.14323583245277405 0.027379799634218216 -0.31801721453666687 9210247 0 -1
-0.14325116574764252 0.027145227417349815 -0.3180707097053528 13421512 0 -1
-0.14324623346328735 0.02690684050321579 -0.31807923316955566 13421000 0 -1
-0.1432410627603531 0.026668468490242958 -0.31808722019195557 12960705 0 -1
-0.14299516379833221 0.025911960750818253 -0.31759944558143616 6381147 0 -1
-0.14298543334007263 0.025436628609895706 -0.317616730928421 6315096 0 -1
-0.142980694770813 0.025199074298143387 -0.31762561202049255 6446425 0 -1
-0.14297586679458618 0.0249615628272295 -0.31763434410095215 6117718 0 -1
-0.14298953115940094 0.02472730726003647 -0.317684143781662 5920339 0 -1
-0.14296676218509674 0.024486808106303215 -0.31765303015708923 5920339 0 -1
-0.14296649396419525 0.023540951311588287 -0.31773021817207336 5854546 0 -1
-0.14296220242977142 0.02330390363931656 -0.3177400827407837 5920339 0 -1
-0.14297471940517426 0.023069631308317184 -0.31778737902641296 5722960 0 -1
-0.14297029376029968 0.02283264882862568 -0.3177969753742218 5591374 0 -1
-0.14296157658100128 0.022358881309628487 -0.31781649589538574 5723216 0 -1
-0.14295633137226105 0.02117791585624218 -0.317902147769928 5525580 0 -1
-0.14321058988571167 0.020506754517555237 -0.3185260593891144 5065287 0 -1
-0.14320257306098938 0.02003329060971737 -0.31854718923568726 5131080 0 -1
-0.14319729804992676 0.018852565437555313 -0.31863299012184143 5262408 0 -1
-0.1431935727596283 0.0186162106692791 -0.3186441957950592 5130822 0 -1
-0.14320296049118042 0.018381595611572266 -0.31868457794189453 5130823 0 -1
-0.14318645000457764 0.018143711611628532 -0.31866738200187683 5130823 0 -1
-0.14319190382957458 0.017672980204224586 -0.31871846318244934 5065030 1 -1
-0.14344216883182526 0.01675989478826523 -0.31935369968414307 4933444 1 -1
-0.14343883097171783 0.01652362197637558 -0.31936582922935486 4999237 1 -1
-0.14343219995498657 0.016051243990659714 -0.31939011812210083 5130823 1 -1
-0.14343340694904327 0.01534427609294653 -0.3194514214992523 5196616 1 -1
-0.14342786371707916 0.014166075736284256 -0.31953683495521545 5328459 1 -1
-0.14342206716537476 0.01369477715343237 -0.3195629417896271 5525838 1 -1
-0.14342519640922546 0.013224511407315731 -0.31960901618003845 5525838 1 -1
-0.14342248439788818 0.012989046983420849 -0.3196225166320801 5591374 1 -1
-0.14341950416564941 0.012048364616930485 -0.31969404220581055 6249303 1 -1
-0.14341692626476288 0.011813156306743622 -0.31970781087875366 6314839 1 -1
-0.14341187477111816 0.01134289801120758 -0.31973564624786377 6577754 1 -1
-0.14340712130069733 0.010872866958379745 -0.319764107465744 6249560 1 -1
-0.14340494573116302 0.010637940838932991 -0.31977877020835876 6183511 1 -1
-0.14340242743492126 0.00969915185123682 -0.3198513388633728 5788753 1 -1
-0.14340032637119293 0.00946446880698204 -0.3198661804199219 5459788 1 -1
-0.1434035748243332 0.009230177849531174 -0.319892942905426 5525324 1 -1
-0.14314866065979004 0.00897972472012043 -0.31934380531311035 5656910 1 -1
-0.14314943552017212 0.008511805906891823 -0.31938454508781433 5591374 1 -1
-0.1431429088115692 0.008277508430182934 -0.3193894624710083 5591374 1 -1
-0.14314375817775726 0.007342332508414984 -0.3194693326950073 5130824 1 -1
-0.14314015209674835 0.006874799262732267 -0.31950023770332336 4867908 1 -1
-0.14313849806785583 0.006641111336648464 -0.31951606273651123 4867908 1 -1
-0.1428827941417694 0.006162990350276232 -0.31898418068885803 5393994 1 -1
-0.1428782194852829 0.0049979183822870255 -0.3190712332725525 5065029 1 -1
-0.14262498915195465 0.0045242272317409515 -0.31854450702667236 5196616 1 -1
-0.14262373745441437 0.004291834309697151 -0.3185611069202423 4999237 1 -1
-0.14262248575687408 0.004059488419443369 -0.31857773661613464 5130823 1 -1
-0.14236964285373688 0.0038204360753297806 -0.31803232431411743 5262152 1 -1
-0.14236527681350708 0.0026616964023560286 -0.3181193768978119 5327945 0 -1
-0.14236299693584442 0.002198501257225871 -0.3181530237197876 5065029 0 -1
-0.14236222207546234 0.001966975862160325 -0.3181706368923187 4998980 0 -1
-0.14236091077327728 0.0015040586004033685 -0.31820642948150635 5131080 0 -1
-0.14210541546344757 0.00034690462052822113 -0.3177318871021271 5196873 0 -1
-0.14185072481632233 -0.00034465902717784047 -0.3172202706336975 5394250 0 -1
-0.14185050129890442 -0.0005748907569795847 -0.31723901629447937 5985610 0 -1
-0.14184659719467163 -0.001955378334969282 -0.31734585762023926 8483647 0 -1
-0.1418425738811493 -0.002645008498802781 -0.3173946142196655 6117195 0 -1
-0.14159254729747772 -0.003099125111475587 -0.31687355041503906 9732668 0 -1
-0.14159294962882996 -0.0033284632954746485 -0.31689366698265076 11441454 0 -1
-0.14158298075199127 -0.004245081450790167 -0.31694814562797546 6840650 0 -1
-0.1415899395942688 -0.004474414512515068 -0.3169829249382019 5722960 0 -1
-0.1413346529006958 -0.004923650063574314 -0.31644973158836365 5657424 0 -1
-0.14132902026176453 -0.005380578339099884 -0.31647542119026184 5591375 0 -1
-0.14132963120937347 -0.005609105806797743 -0.3164959251880646 5393995 0 -1
-0.14132538437843323 -0.00652252696454525 -0.3165629804134369 5460044 0 -1
-0.14131996035575867 -0.0072070276364684105 -0.3166082203388214 5328459 0 -1
-0.14107225835323334 -0.007649898529052734 -0.31609147787094116 5394251 0 -1
-0.1408143937587738 -0.00945302750915289 -0.3156660497188568 4736065 0 -1
-0.1408267617225647 -0.00968084018677473 -0.3157128095626831 4802115 0 -1
-0.14081929624080658 -0.010134153068065643 -0.3157341182231903 5262409 0 -1
-0.14081718027591705 -0.01126786507666111 -0.3158244788646698 4933444 0 -1
-0.14080901443958282 -0.011720460839569569 -0.31584417819976807 4999494 0 -1
-0.14081114530563354 -0.0119472062215209 -0.31586793065071106 5065287 0 -1
-0.1405540257692337 -0.012377586215734482 -0.31532907485961914 4736322 0 -1
-0.14055182039737701 -0.013507191091775894 -0.3154188394546509 5065287 0 -1
-0.14029362797737122 -0.016409996896982193 -0.3150850236415863 5525838 0 -1
-0.14031340181827545 -0.016637276858091354 -0.3151482939720154 5525838 0 -1
-0.1400558054447174 -0.01817755587399006 -0.3147014379501343 5459788 0 -1
-0.1400485783815384 -0.01884923130273819 -0.3147415518760681 5393995 0 -1
-0.1397905796766281 -0.019261904060840607 -0.314199298620224 5393995 0 -1
-0.13929760456085205 -0.023421861231327057 -0.31344568729400635 4473151 0 -1
-0.13928468525409698 -0.023863917216658592 -0.3134538531303406 4999237 0 -1
-0.13878890872001648 -0.025548093020915985 -0.31248635053634644 5196616 0 -1
-0.1440802812576294 0.04129750654101372 -0.3193683922290802 5328460 0 -1
-0.14407333731651306 0.041053809225559235 -0.31937241554260254 5460045 0 -1
-0.14406664669513702 0.040810249745845795 -0.31937697529792786 5854288 0 -1
-0.14405982196331024 0.040566712617874146 -0.3193812668323517 6051410 0 -1
-0.14405325055122375 0.04032331705093384 -0.3193860948085785 5985617 0 -1
-0.14404664933681488 0.040079981088638306 -0.3193908631801605 5985618 0 -1
-0.14404018223285675 0.039836738258600235 -0.31939592957496643 6117461 0 -1
-0.14406397938728333 0.0396018847823143 -0.3194681406021118 6183254 0 -1
-0.14405719935894012 0.03935863822698593 -0.3194725513458252 6051668 0 -1
-0.14405079185962677 0.03911555930972099 -0.31947773694992065 5985875 0 -1
-0.14404429495334625 0.038872525095939636 -0.3194827735424042 5986388 0 -1
-0.1440378576517105 0.03862956166267395 -0.31948789954185486 6052181 0 -1
-0.14403147995471954 0.03838668018579483 -0.31949320435523987 6117718 0 -1
-0.14404134452342987 0.037666015326976776 -0.31957340240478516 6512219 0 -1
-0.14400668442249298 0.0374159999191761 -0.31951597332954407 6314840 0 -1
-0.14402885735034943 0.037180811166763306 -0.31958460807800293 6183254 0 -1
-0.1440226435661316 0.03693831339478493 -0.319590300321579 6183254 0 -1
-0.14378783106803894 0.03639720752835274 -0.3191080689430237 5722959 0 -1
-0.14375396072864532 0.0361483171582222 -0.3190523087978363 5591630 0 -1
-0.14377523958683014 0.03591335937380791 -0.31911900639533997 5657424 0 -1
-0.14376316964626312 0.03542989119887352 -0.3191310465335846 6182996 0 -1
-0.14352749288082123 0.03489232063293457 -0.31864672899246216 5525580 0 -1
-0.14352136850357056 0.03465115651488304 -0.31865251064300537 5262666 0 -1
-0.14351528882980347 0.03441006690263748 -0.3186584413051605 5262666 0 -1
-0.14350344240665436 0.03392815962433815 -0.31867095828056335 5262409 0 -1
-0.1434975117444992 0.033687297254800797 -0.3186771869659424 5262408 0 -1
-0.14349180459976196 0.033446550369262695 -0.318683922290802 5262408 0 -1
-0.14350537955760956 0.032970983535051346 -0.3187529444694519 4999237 0 -1
-0.14324942231178284 0.03267330303788185 -0.31820380687713623 4802115 0 -1
-0.14324355125427246 0.03243313357234001 -0.3182101249694824 4604479 0 -1
-0.14323782920837402 0.03219307214021683 -0.31821683049201965 4604479 0 -1
-0.1432322859764099 0.0319531112909317 -0.3182239234447479 4670528 0 -1
-0.1432507038116455 0.03171851485967636 -0.3182842433452606 4736065 0 -1
-0.14324496686458588 0.03147859126329422 -0.31829091906547546 4736065 0 -1
-0.14323914051055908 0.03123871237039566 -0.3182973563671112 4736065 0 -1
-0.1429780274629593 0.030705569311976433 -0.31775593757629395 4670529 0 -1
-0.14297261834144592 0.03046637773513794 -0.3177632689476013 4670529 0 -1
-0.14299000799655914 0.03023207001388073 -0.3178212642669678 4670528 0 -1
-0.14298444986343384 0.029992936179041862 -0.31782832741737366 4670528 0 -1
-0.14297884702682495 0.029753850772976875 -0.3178352415561676 4933701 0 -1
-0.14296823740005493 0.029275991022586823 -0.3178504407405853 5459787 0 -1
-0.1429629772901535 0.02903716079890728 -0.31785812973976135 5459787 0 -1
-0.14296865463256836 0.028325282037258148 -0.3179289400577545 5131080 0 -1
-0.1429634988307953 0.028086679056286812 -0.31793686747550964 5459788 0 -1
-0.1429583728313446 0.027848143130540848 -0.31794488430023193 5525582 0 -1
-0.1429533064365387 0.027609676122665405 -0.3179530203342438 5591375 0 -1
-0.14271347224712372 0.027089323848485947 -0.31745830178260803 13552586 0 -1
-0.14270833134651184 0.026851404458284378 -0.31746622920036316 13421256 0 -1
-0.1427033245563507 0.026613570749759674 -0.31747448444366455 12960705 0 -1
-0.1427079737186432 0.02590399608016014 -0.3175429701805115 6249818 0 -1
-0.1427028775215149 0.02566635049879551 -0.31755101680755615 6052182 0 -1
-0.14269810914993286 0.025428825989365578 -0.3175598084926605 6183511 0 -1
-0.1426934003829956 0.02519136667251587 -0.31756865978240967 6314840 0 -1
-0.14268872141838074 0.024953976273536682 -0.31757768988609314 6117462 0 -1
-0.14267949759960175 0.02447938360273838 -0.317595899105072 5854546 0 -1
-0.14267918467521667 0.023533901199698448 -0.3176727890968323 5854545 0 -1
-0.1426747590303421 0.02329692803323269 -0.31768232583999634 5920339 0 -1
-0.14268730580806732 0.023062756285071373 -0.3177296817302704 5788753 0 -1
-0.1426827311515808 0.022825846448540688 -0.3177388906478882 5722959 0 -1
-0.14267399907112122 0.02235226519405842 -0.3177582323551178 5460044 0 -1
-0.14266985654830933 0.022115593776106834 -0.317768394947052 5525837 0 -1
-0.14266885817050934 0.021171793341636658 -0.31784379482269287 5722446 0 -1
-0.14266474545001984 0.020935386419296265 -0.31785404682159424 5525323 0 -1
-0.14267566800117493 0.020701216533780098 -0.317897766828537 5262666 0 -1
-0.14267154037952423 0.02046489343047142 -0.31790798902511597 5130824 0 -1
-0.1429147869348526 0.020027659833431244 -0.31848886609077454 4933701 0 -1
-0.142909437417984 0.018847405910491943 -0.3185741901397705 5130823 0 -1
-0.14290569722652435 0.01861114427447319 -0.31858527660369873 4999236 0 -1
-0.14291508495807648 0.018376627936959267 -0.31862565875053406 5130566 0 -1
-0.1428985446691513 0.018138833343982697 -0.31860828399658203 5196359 0 -1
-0.14290396869182587 0.01766829378902912 -0.318659245967865 5196616 1 -1
-0.1431538462638855 0.0167555995285511 -0.31929439306259155 4670529 1 -1
-0.14315049350261688 0.016519421711564064 -0.3193063735961914 4867908 1 -1
-0.1431439220905304 0.016047244891524315 -0.31933069229125977 5065287 1 -1
-0.14314818382263184 0.015576460398733616 -0.31937918066978455 5065030 1 -1
-0.14314500987529755 0.015340551733970642 -0.31939154863357544 5196616 1 -1
-0.14313948154449463 0.014162841252982616 -0.3194766640663147 5196873 1 -1
-0.14313362538814545 0.013691733591258526 -0.3195025622844696 5525581 1 -1
-0.14313669502735138 0.013221656903624535 -0.3195483982563019 5591375 1 -1
-0.14313389360904694 0.01298628281801939 -0.319561630487442 5657168 1 -1
-0.14313103258609772 0.01204600464552641 -0.3196331858634949 6446426 1 -1
-0.1431283950805664 0.011810887604951859 -0.3196467459201813 6314839 1 -1
-0.1431233286857605 0.011340825818479061 -0.31967440247535706 6249046 1 -1
-0.1431162804365158 0.010636155493557453 -0.3197171092033386 5920339 1 -1
-0.14311371743679047 0.009697758592665195 -0.3197892904281616 5460044 1 -1
-0.14285925030708313 0.00944648776203394 -0.31924012303352356 5459788 1 -1
-0.14286059141159058 0.008978640660643578 -0.31928199529647827 5919567 1 -1
-0.14286117255687714 0.008510909043252468 -0.3193221986293793 5394252 1 -1
-0.14285480976104736 0.008276719599962234 -0.31932738423347473 5460301 1 -1
-0.14285176992416382 0.007341742515563965 -0.3193983733654022 5328459 1 -1
-0.1428518295288086 0.0068745967000722885 -0.31943732500076294 4999494 1 -1
-0.14259791374206543 0.006629280745983124 -0.31888896226882935 5065287 1 -1
-0.1425948292016983 0.006163081154227257 -0.3189208507537842 5459788 1 -1
-0.14233824610710144 0.0049896761775016785 -0.31844377517700195 4998979 1 -1
-0.1423373520374298 0.004525013733655214 -0.3184804618358612 5065030 1 -1
-0.1423359513282776 0.004292718134820461 -0.3184967041015625 4802115 1 -1
-0.1423337161540985 0.0038282806053757668 -0.318530410528183 5327945 1 -1
-0.1420777142047882 0.0026632812805473804 -0.31805405020713806 5393737 0 -1
-0.1420755386352539 0.0022002907935529947 -0.31808775663375854 5196358 0 -1
-0.14207476377487183 0.0019688676111400127 -0.3181053400039673 5196101 0 -1
-0.14182236790657043 0.0015034920070320368 -0.3175787627696991 5459531 0 -1
-0.14181827008724213 0.00034950519329868257 -0.31766587495803833 5262666 0 -1
-0.1415640413761139 -0.00034175621112808585 -0.31715404987335205 5328458 0 -1
-0.14156371355056763 -0.0005718850297853351 -0.3171725273132324 5788489 0 -1
-0.14155979454517365 -0.001951755490154028 -0.3172789514064789 8483648 0 -1
-0.14130540192127228 -0.002636405173689127 -0.31676632165908813 6182988 0 -1
-0.14130599796772003 -0.0030949879437685013 -0.3168059289455414 9667132 0 -1
-0.14130643010139465 -0.003324223682284355 -0.31682607531547546 11506990 0 -1
-0.1412966400384903 -0.004240432288497686 -0.3168806731700897 6643016 0 -1
-0.14105363190174103 -0.00446175504475832 -0.31635481119155884 5525837 0 -1
-0.14104849100112915 -0.0049186875112354755 -0.3163814842700958 5591631 0 -1
-0.1410428285598755 -0.005375407170504332 -0.3164069950580597 5525839 0 -1
-0.14104345440864563 -0.005603830795735121 -0.31642746925354004 5328459 0 -1
-0.1410391926765442 -0.0065168347209692 -0.31649425625801086 5131080 0 -1
-0.1407843679189682 -0.007188286166638136 -0.31597957015037537 5196616 0 -1
-0.1407865583896637 -0.007643692661076784 -0.3160225749015808 5328203 0 -1
-0.1407848745584488 -0.009008522145450115 -0.31613296270370483 4736065 0 -1
-0.14052879810333252 -0.009445969015359879 -0.3155958652496338 4670272 0 -1
-0.140541210770607 -0.009673681110143661 -0.31564274430274963 4801859 0 -1
-0.14053380489349365 -0.010126784443855286 -0.31566402316093445 5328202 0 -1
-0.14053180813789368 -0.011259980499744415 -0.31575435400009155 5196615 0 -1
-0.1405235081911087 -0.011712351813912392 -0.315773606300354 5130824 0 -1
-0.14026880264282227 -0.012369157746434212 -0.3152579963207245 4538943 0 -1
-0.14026668667793274 -0.013498240150511265 -0.31534770131111145 4933701 0 -1
-0.14001204073429108 -0.014149605296552181 -0.31483176350593567 4736066 0 -1
-0.14002934098243713 -0.014376596547663212 -0.314889520406723 5196616 0 -1
-0.14000888168811798 -0.01639966107904911 -0.3150129020214081 5920339 0 -1
-0.14002862572669983 -0.016626834869384766 -0.31507614254951477 5657167 0 -1
-0.1397714763879776 -0.018166378140449524 -0.31462886929512024 5525838 0 -1
-0.13976424932479858 -0.018837731331586838 -0.3146688640117645 5262409 0 -1
-0.13950645923614502 -0.019250167533755302 -0.3141258955001831 5328202 0 -1
-0.1390221267938614 -0.022743016481399536 -0.31333300471305847 4604222 0 -1
-0.13901427388191223 -0.023408086970448494 -0.31337103247642517 4407358 0 -1
-0.13850650191307068 -0.025533268228173256 -0.3124111592769623 5196617 0 -1
-0.13851165771484375 -0.02575509622693062 -0.31244128942489624 5131080 0 -1
-0.14376091957092285 0.04127509146928787 -0.31924906373023987 5459789 0 -1
-0.14378567039966583 0.041040580719709396 -0.3193233609199524 5460045 0 -1
-0.14377890527248383 0.04079708084464073 -0.3193276822566986 5591373 0 -1
-0.14377209544181824 0.040553636848926544 -0.31933191418647766 5722702 0 -1
-0.14376546442508698 0.04031031206250191 -0.31933656334877014 5788496 0 -1
-0.1437588632106781 0.04006705805659294 -0.3193412721157074 5920082 0 -1
-0.14375239610671997 0.039823900908231735 -0.31934624910354614 6051668 0 -1
-0.14377613365650177 0.03958912938833237 -0.319418340921402 6183510 0 -1
-0.1437695175409317 0.039346013218164444 -0.31942301988601685 6314840 0 -1
-0.14376288652420044 0.039102960377931595 -0.31942763924598694 6315096 0 -1
-0.14375638961791992 0.038860004395246506 -0.3194325864315033 6249303 0 -1
-0.1437499225139618 0.03861713036894798 -0.3194376230239868 6117718 0 -1
-0.14374354481697083 0.03837433457374573 -0.3194427788257599 5986132 0 -1
-0.1437535285949707 0.03765397146344185 -0.3195231556892395 6117718 0 -1
-0.14346890151500702 0.037338968366384506 -0.3189098536968231 6051925 0 -1
-0.14349094033241272 0.03710426390171051 -0.3189781904220581 5986131 0 -1
-0.14348475635051727 0.03686228021979332 -0.318983793258667 5920338 0 -1
-0.14350005984306335 0.036385513842105865 -0.31905660033226013 5854546 0 -1
-0.14346618950366974 0.036136697977781296 -0.3190006613731384 5854803 0 -1
-0.14348743855953217 0.035901833325624466 -0.3190672695636749 5986132 0 -1
-0.14322549104690552 0.035356853157281876 -0.31852346658706665 6183253 0 -1
-0.14324623346328735 0.03512228652834892 -0.3185889720916748 5920338 0 -1
-0.14323997497558594 0.0348811149597168 -0.318594366312027 5459788 0 -1
-0.14323383569717407 0.03464004024863243 -0.318600058555603 5196616 0 -1
-0.1432277262210846 0.034399036318063736 -0.31860584020614624 4999494 0 -1
-0.14322170615196228 0.03415811434388161 -0.31861183047294617 4867908 0 -1
-0.1432158201932907 0.03391728550195694 -0.3186180889606476 4802115 0 -1
-0.14320996403694153 0.03367653489112854 -0.31862446665763855 4867651 0 -1
-0.14320403337478638 0.033435821533203125 -0.318630576133728 4933445 0 -1
-0.14294858276844025 0.033137332648038864 -0.3180815577507019 4933444 0 -1
-0.14296779036521912 0.032902948558330536 -0.3181436061859131 4867394 0 -1
-0.14296184480190277 0.03266280144453049 -0.31814974546432495 4670272 0 -1
-0.14295616745948792 0.03242277354001999 -0.3181564509868622 4473150 0 -1
-0.14295043051242828 0.03218279033899307 -0.3181630074977875 4604735 0 -1
-0.14294467866420746 0.03194287419319153 -0.31816956400871277 4867907 0 -1
-0.14270780980587006 0.03141361102461815 -0.3176809549331665 4736065 0 -1
-0.14270202815532684 0.031174251809716225 -0.31768742203712463 4736065 0 -1
-0.14268533885478973 0.030456673353910446 -0.31770825386047363 4670529 0 -1
-0.14270272850990295 0.030222462490200996 -0.3177662491798401 4670529 0 -1
-0.14269714057445526 0.029983414337038994 -0.31777316331863403 4801858 0 -1
-0.1426917165517807 0.029744455590844154 -0.31778040528297424 4933444 0 -1
-0.14268091320991516 0.029266739264130592 -0.3177950382232666 5262409 0 -1
-0.1424315869808197 0.028266839683055878 -0.3173169195652008 5262409 0 -1
-0.14242634177207947 0.02802872844040394 -0.31732451915740967 5459788 0 -1
-0.14242129027843475 0.02779071219265461 -0.31733259558677673 5525581 0 -1
-0.14241614937782288 0.027552738785743713 -0.3173404633998871 5525581 0 -1
-0.14241109788417816 0.027314843609929085 -0.31734851002693176 9341832 0 -1
-0.14242634177207947 0.02708086557686329 -0.31740179657936096 13552842 0 -1
-0.1424211859703064 0.026843039318919182 -0.3174096345901489 13421255 0 -1
-0.14241616427898407 0.026605291292071342 -0.3174177408218384 12829119 0 -1
-0.14242076873779297 0.025895996019244194 -0.3174859881401062 6052183 0 -1
-0.142415851354599 0.02565847709774971 -0.31749436259269714 5854804 0 -1
-0.14241096377372742 0.0254210215061903 -0.31750279664993286 5986132 0 -1
-0.14240612089633942 0.025183631107211113 -0.31751132011413574 6117461 0 -1
-0.14240147173404694 0.024946337565779686 -0.31752029061317444 5920340 0 -1
-0.14239680767059326 0.024709099903702736 -0.31752923130989075 5789010 0 -1
-0.14239224791526794 0.024471936747431755 -0.31753838062286377 5854546 0 -1
-0.14239180088043213 0.023526810109615326 -0.31761476397514343 5788753 0 -1
-0.14238734543323517 0.02328992448747158 -0.31762415170669556 5854290 0 -1
-0.1423998475074768 0.023055844008922577 -0.31767135858535767 5788496 0 -1
-0.1423954963684082 0.02281906083226204 -0.3176809549331665 5722703 0 -1
-0.1423867642879486 0.02234567329287529 -0.31770020723342896 5525837 0 -1
-0.1423824578523636 0.022109070792794228 -0.31770992279052734 5525581 0 -1
-0.1423814445734024 0.021165648475289345 -0.3177850842475891 5591373 0 -1
-0.14237740635871887 0.020929347723722458 -0.31779539585113525 5459788 0 -1
-0.14238832890987396 0.02069527469575405 -0.3178391456604004 5328459 0 -1
-0.14238417148590088 0.020459042862057686 -0.31784921884536743 5262409 0 -1
-0.1423761248588562 0.019986789673566818 -0.31786996126174927 4933701 0 -1
-0.14237210154533386 0.019750745967030525 -0.3178803026676178 4999494 0 -1
-0.14262162148952484 0.018842225894331932 -0.31851497292518616 5130566 0 -1
-0.14262722432613373 0.018371637910604477 -0.31856629252433777 5064773 0 -1
-0.14261069893836975 0.018133938312530518 -0.3185487985610962 5065030 1 -1
-0.14261607825756073 0.017663586884737015 -0.31859955191612244 5130823 1 -1
-0.14286568760871887 0.016751302406191826 -0.3192349374294281 4933701 1 -1
-0.14286230504512787 0.01651521772146225 -0.3192467987537384 4999237 1 -1
-0.14285553991794586 0.01604321040213108 -0.3192704916000366 4999494 1 -1
-0.14285676181316376 0.01533682830631733 -0.3193315267562866 5130823 1 -1
-0.142854243516922 0.014395147562026978 -0.31940361857414246 5262666 1 -1
-0.14285118877887726 0.014159598387777805 -0.31941622495651245 5262666 1 -1
-0.1428452432155609 0.013688677921891212 -0.3194417953491211 5459788 1 -1
-0.14284835755825043 0.013218801468610764 -0.319487601518631 5657167 1 -1
-0.1428455263376236 0.012983523309230804 -0.31950071454048157 5788753 1 -1
-0.14284265041351318 0.012043635360896587 -0.31957197189331055 6183511 1 -1
-0.14283999800682068 0.01180861797183752 -0.31958550214767456 6183254 1 -1
-0.14283487200737 0.01133874710649252 -0.31961289048194885 6117460 1 -1
-0.14283253252506256 0.011103905737400055 -0.3196270763874054 6051668 1 -1
-0.14283449947834015 0.01063486933708191 -0.31967034935951233 5854803 1 -1
-0.14257323741912842 0.009679262526333332 -0.31916314363479614 5591374 1 -1
-0.1425711214542389 0.009445189498364925 -0.3191778063774109 5657166 1 -1
-0.14257438480854034 0.009211513213813305 -0.31920450925827026 5788495 1 -1
-0.14257225394248962 0.008977528661489487 -0.31921911239624023 5919824 1 -1
-0.14257308840751648 0.008510012179613113 -0.31925976276397705 5460044 1 -1
-0.14256642758846283 0.008275903761386871 -0.3192642033100128 5525837 1 -1
-0.14230996370315552 0.006629164330661297 -0.31882527470588684 5065287 1 -1
-0.14230704307556152 0.006163172423839569 -0.31885743141174316 5459788 1 -1
-0.1420506089925766 0.004990256391465664 -0.31837937235832214 4867651 1 -1
-0.14204934239387512 0.004757977090775967 -0.31839582324028015 4999236 1 -1
-0.14204947650432587 0.004525788128376007 -0.31841540336608887 4933444 1 -1
-0.14204838871955872 0.004293603822588921 -0.3184323012828827 4802115 1 -1
-0.1417948603630066 0.003822593716904521 -0.31790244579315186 5196615 1 -1
-0.14179405570030212 0.003590961918234825 -0.31791990995407104 4933444 1 -1
-0.1417904794216156 0.0026648694183677435 -0.31798893213272095 5327944 0 -1
-0.14178825914859772 0.0022020817268639803 -0.31802240014076233 5130822 0 -1
-0.14178752899169922 0.0019707607571035624 -0.31804004311561584 5064773 0 -1
-0.14153528213500977 0.0015055813128128648 -0.3175126314163208 5525324 0 -1
-0.14128074049949646 0.00035148372990079224 -0.3170374929904938 5394252 0 -1
