VERSION .7
FIELDS x y z rgb label object
SIZE 4 4 4 4 4 4
TYPE F F F I I I
COUNT 1 1 1 1 1 1
WIDTH 637
HEIGHT 1
POINTS 637
VIEWPOINT 0 0 0 1 0 0 0
DATA ascii
-0.12881503999233246 0.035932134836912155 -0.2982955276966095 5788753 0 -1
-0.1288207620382309 0.03526156395673752 -0.29835981130599976 5591631 0 -1
-0.12878669798374176 0.035028327256441116 -0.2982979118824005 5591631 0 -1
-0.12880663573741913 0.034809838980436325 -0.2983611226081848 5525838 0 -1
-0.12856405973434448 0.03429744020104408 -0.2978332042694092 5459788 0 -1
-0.12858347594738007 0.03407922387123108 -0.2978951930999756 5394252 0 -1
-0.12857657670974731 0.03385405242443085 -0.2978961765766144 5459788 0 -1
-0.12856945395469666 0.03362889215350151 -0.29789668321609497 5262667 0 -1
-0.12856249511241913 0.03340383991599083 -0.2978975474834442 4999494 0 -1
-0.12855571508407593 0.033178891986608505 -0.2978988289833069 4802372 0 -1
-0.12854893505573273 0.03295401483774185 -0.29790011048316956 4867908 0 -1
-0.12856750190258026 0.03273565694689751 -0.29796016216278076 4802115 0 -1
-0.12856072187423706 0.03251086547970772 -0.29796144366264343 4802115 0 -1
-0.12854725122451782 0.03206149861216545 -0.2979642450809479 4670785 0 -1
-0.1285407543182373 0.03183697164058685 -0.29796621203422546 4670529 0 -1
-0.1285342127084732 0.031612496823072433 -0.2979680299758911 4670529 0 -1
-0.1285519003868103 0.031394001096487045 -0.29802605509757996 4736322 0 -1
-0.12854523956775665 0.0311695896089077 -0.2980276346206665 4867651 0 -1
-0.1285323053598404 0.030721036717295647 -0.29803165793418884 5130823 0 -1
-0.12832073867321014 0.030448196455836296 -0.29755809903144836 5196616 0 -1
-0.1285196989774704 0.030272826552391052 -0.29803648591041565 5262409 0 -1
-0.1283014863729477 0.029777148738503456 -0.29756444692611694 4736065 0 -1
-0.12829522788524628 0.029553627595305443 -0.29756689071655273 4736065 0 -1
-0.12831151485443115 0.029335329309105873 -0.2976216971874237 4933444 0 -1
-0.12828302383422852 0.029106855392456055 -0.29757261276245117 4999237 0 -1
-0.1282990276813507 0.028888534754514694 -0.29762670397758484 4933444 0 -1
-0.12829293310642242 0.028665266931056976 -0.29762956500053406 4801858 0 -1
-0.12828676402568817 0.02844204567372799 -0.29763227701187134 4670529 0 -1
-0.12828083336353302 0.028218936175107956 -0.2976355254650116 4670529 0 -1
-0.12829625606536865 0.028000550344586372 -0.2976883053779602 4736321 0 -1
-0.12828411161899567 0.02755451388657093 -0.2976941466331482 4538943 0 -1
-0.12829908728599548 0.02733607590198517 -0.2977459132671356 4802115 0 -1
-0.12827251851558685 0.027108844369649887 -0.29770123958587646 5131080 0 -1
-0.1282668262720108 0.026886124163866043 -0.2977050840854645 5130824 0 -1
-0.128281369805336 0.026667669415473938 -0.2977558374404907 5065031 0 -1
-0.1282755583524704 0.026445012539625168 -0.29775941371917725 5065031 0 -1
-0.12826989591121674 0.02622244507074356 -0.29776322841644287 4999495 0 -1
-0.12826435267925262 0.025999965146183968 -0.29776737093925476 4933702 0 -1
-0.1282726675271988 0.02555905282497406 -0.2978207468986511 5196617 0 -1
-0.12826696038246155 0.02533669024705887 -0.29782453179359436 5525837 0 -1
-0.12826161086559296 0.025114454329013824 -0.29782912135124207 5657423 0 -1
-0.12827496230602264 0.024895915761590004 -0.29787716269493103 5788752 0 -1
-0.1282694935798645 0.024673745036125183 -0.29788148403167725 5920082 0 -1
-0.1282639354467392 0.024451620876789093 -0.29788559675216675 6051668 0 -1
-0.12825864553451538 0.024229610338807106 -0.2978903353214264 6051668 0 -1
-0.1282532662153244 0.024007638916373253 -0.2978948950767517 5985875 0 -1
-0.12824805080890656 0.02378576435148716 -0.2978998124599457 5920083 0 -1
-0.1282605677843094 0.0235672015696764 -0.29794591665267944 5789010 0 -1
-0.12825541198253632 0.023345420137047768 -0.29795095324516296 5788753 0 -1
-0.12825019657611847 0.023123692721128464 -0.2979559004306793 5788753 0 -1
-0.12826228141784668 0.02290510945022106 -0.2980009913444519 6117461 0 -1
-0.12824025750160217 0.0226804967969656 -0.2979668378829956 6380633 0 -1
-0.1282520294189453 0.022461917251348495 -0.29801124334335327 6117461 0 -1
-0.12824687361717224 0.022240405902266502 -0.2980163097381592 5788753 0 -1
-0.12825334072113037 0.021800415590405464 -0.2980654239654541 5197130 0 -1
-0.12824824452400208 0.021579062566161156 -0.29807060956954956 5196874 0 -1
-0.12824338674545288 0.021357808262109756 -0.2980763912200928 5196874 0 -1
-0.12823382019996643 0.020915500819683075 -0.2980881929397583 5460045 0 -1
-0.12824442982673645 0.020696917548775673 -0.2981299161911011 5196873 0 -1
-0.1282397359609604 0.020475899800658226 -0.29813605546951294 4999494 0 -1
-0.1280006468296051 0.01999814249575138 -0.2976142466068268 4933701 0 -1
-0.12800602614879608 0.019559551030397415 -0.297660768032074 5131081 0 -1
-0.12800143659114838 0.019339201971888542 -0.29766711592674255 4933445 0 -1
-0.12799738347530365 0.018460452556610107 -0.29772576689720154 4604736 0 -1
-0.12797991931438446 0.018238531425595284 -0.2977021634578705 4604736 0 -1
-0.1279887557029724 0.01802041567862034 -0.29773974418640137 4407357 0 -1
-0.12798458337783813 0.017800502479076385 -0.29774707555770874 4341564 0 -1
-0.1279805600643158 0.017580663785338402 -0.2977546751499176 4604736 0 -1
-0.12798896431922913 0.017362570390105247 -0.2977913022041321 4736322 0 -1
-0.1279727965593338 0.017141193151474 -0.2977706789970398 4670529 0 -1
-0.12798093259334564 0.016923129558563232 -0.29780665040016174 4670529 0 -1
-0.12798067927360535 0.016265884041786194 -0.2978571355342865 4867651 0 -1
-0.12797683477401733 0.016046414151787758 -0.29786521196365356 4801858 0 -1
-0.1279730498790741 0.015827007591724396 -0.2978734076023102 4736066 0 -1
-0.1277395337820053 0.015579634346067905 -0.2973468601703644 4801859 0 -1
-0.1279657632112503 0.015388388186693192 -0.29789048433303833 5065031 0 -1
-0.12797273695468903 0.015170419588685036 -0.2979237735271454 5196617 0 -1
-0.12796905636787415 0.014951220713555813 -0.2979322075843811 5130823 0 -1
-0.1279655247926712 0.01473209448158741 -0.2979409694671631 5065030 0 -1
-0.12796200811862946 0.014513024128973484 -0.29794982075691223 4999238 0 -1
-0.12796495854854584 0.014076139777898788 -0.2979907691478729 4933702 0 -1
-0.1279710829257965 0.013858255930244923 -0.2980220317840576 4999494 0 -1
-0.127958282828331 0.013638376258313656 -0.2980092465877533 5196873 1 -1
-0.12795494496822357 0.013419573195278645 -0.2980184853076935 5328459 1 -1
-0.12796062231063843 0.013201752677559853 -0.298048734664917 5460045 1 -1
-0.1279575526714325 0.012983066961169243 -0.2980585992336273 5591630 1 -1
-0.12773282825946808 0.012742321006953716 -0.2975521385669708 5722960 1 -1
-0.12772120535373688 0.01252327673137188 -0.297542005777359 5657167 1 -1
-0.12748749554157257 0.011630833148956299 -0.2970654368400574 5526094 1 -1
-0.1274845451116562 0.011413289234042168 -0.2970755100250244 5525838 1 -1
-0.12771722674369812 0.010563843883574009 -0.2976856529712677 5525837 1 -1
-0.12771426141262054 0.010346137918531895 -0.29769572615623474 5460045 1 -1
-0.1279400736093521 0.009493458084762096 -0.2982901632785797 5131080 1 -1
-0.12793754041194916 0.009275633841753006 -0.29830121994018555 5065288 1 -1
-0.12793265283107758 0.008840145543217659 -0.2983238697052002 5197130 1 -1
-0.1281638890504837 0.008420366793870926 -0.2988971471786499 5394252 1 -1
-0.12816151976585388 0.008202399127185345 -0.29890865087509155 5394252 1 -1
-0.1281552016735077 0.007113598752766848 -0.29897910356521606 5130823 1 -1
-0.12838032841682434 0.006036806385964155 -0.299589604139328 5722446 1 -1
-0.12837497889995575 0.004948331043124199 -0.29966241121292114 5065030 1 -1
-0.1281408965587616 0.004288050811737776 -0.29916703701019287 5327687 1 -1
-0.12837089598178864 0.004078353755176067 -0.2997210621833801 4999236 1 -1
-0.12836968898773193 0.0038609630428254604 -0.29973527789115906 4933443 1 -1
-0.12675105035305023 0.00209682690910995 -0.2960905134677887 5130823 1 -1
-0.12697932124137878 0.001885964535176754 -0.296640545129776 4999238 1 -1
-0.12788821756839752 -0.0002600854786578566 -0.2989334762096405 5196873 1 -1
-0.12788774073123932 -0.0006915148114785552 -0.29896631836891174 6643271 1 -1
-0.12764941155910492 -0.0017660987796261907 -0.2984936833381653 8614977 1 -1
-0.12741518020629883 -0.002835771767422557 -0.2980303168296814 9798205 1 -1
-0.12741538882255554 -0.003050242317840457 -0.2980476915836334 11507246 1 -1
-0.1271817535161972 -0.003900547046214342 -0.29756850004196167 6314310 1 -1
-0.12718236446380615 -0.004114443436264992 -0.29758673906326294 5196873 1 -1
-0.12717734277248383 -0.004541903268545866 -0.2976086437702179 5130823 1 -1
-0.12717798352241516 -0.004755679983645678 -0.2976270020008087 5459787 1 -1
-0.1271795630455017 -0.005183135624974966 -0.2976642847061157 4999494 1 -1
-0.12717340886592865 -0.005396514665335417 -0.2976666986942291 4802116 1 -1
-0.12716948986053467 -0.006250452715903521 -0.29772472381591797 4604480 0 -1
-0.1271706223487854 -0.006463940721005201 -0.2977442145347595 4736065 0 -1
-0.1271728128194809 -0.006890807766467333 -0.29778292775154114 4802116 0 -1
-0.12717413902282715 -0.007104200776666403 -0.29780280590057373 4670530 0 -1
-0.1271667629480362 -0.007317060604691505 -0.2978023290634155 4407357 0 -1
-0.12716816365718842 -0.007530376315116882 -0.29782238602638245 4407101 0 -1
-0.127166286110878 -0.008595850318670273 -0.2979019284248352 4275772 0 -1
-0.12716150283813477 -0.009234394878149033 -0.2979409992694855 4736323 0 -1
-0.12715449929237366 -0.009659584611654282 -0.2979581356048584 4867909 0 -1
-0.1271529495716095 -0.010723032988607883 -0.2980382442474365 5131080 0 -1
-0.12715502083301544 -0.010935811325907707 -0.2980598509311676 5262409 0 -1
-0.12714745104312897 -0.011360228061676025 -0.2980755865573883 5591117 0 -1
-0.12715454399585724 -0.01199821662157774 -0.2981424331665039 5459788 0 -1
-0.12714090943336487 -0.013058320619165897 -0.2981940507888794 5657167 0 -1
-0.1271405667066574 -0.014118736609816551 -0.29827678203582764 6315097 0 -1
-0.1271435022354126 -0.014331045560538769 -0.2983003258705139 6183511 0 -1
-0.12713848054409027 -0.016024941578507423 -0.29842203855514526 5196873 0 -1
-0.12712891399860382 -0.016446949914097786 -0.2984329164028168 5394252 0 -1
-0.12737490236759186 -0.018385089933872223 -0.29916051030158997 5065287 0 -1
-0.12736068665981293 -0.018594644963741302 -0.29914379119873047 4933444 0 -1
-0.12734630703926086 -0.018804088234901428 -0.29912665486335754 4736066 0 -1
-0.12734787166118622 -0.019861510023474693 -0.29921361804008484 5262408 0 -1
-0.12735235691070557 -0.0200735442340374 -0.29924076795578003 5328202 0 -1
-0.1273413598537445 -0.020494339987635612 -0.29924824833869934 5065030 0 -1
-0.12712635099887848 -0.021092180162668228 -0.2987927496433258 4736322 0 -1
-0.12713007628917694 -0.022146178409457207 -0.29888445138931274 4736065 0 -1
-0.1268957257270813 -0.02273578941822052 -0.29838311672210693 4801858 0 -1
-0.12688405811786652 -0.023153768852353096 -0.2983887791633606 4933445 0 -1
-0.12688927352428436 -0.023364707827568054 -0.2984175384044647 5065030 0 -1
-0.12687067687511444 -0.024410540238022804 -0.2984564006328583 5196873 0 -1
-0.12688176333904266 -0.024832163006067276 -0.29851552844047546 4933701 0 -1
-0.12688735127449036 -0.025042954832315445 -0.29854515194892883 4999237 0 -1
-0.12687493860721588 -0.025459758937358856 -0.29854896664619446 5459531 0 -1
-0.12688085436820984 -0.025670528411865234 -0.2985793650150299 5459788 0 -1
-0.1266530603170395 -0.026460906490683556 -0.29810914397239685 5460045 0 -1
-0.12663955986499786 -0.02771158702671528 -0.29817599058151245 5525838 0 -1
-0.1266459971666336 -0.027921797707676888 -0.2982075810432434 5460046 0 -1
-0.12641261518001556 -0.02932828664779663 -0.2977727949619293 4999494 0 -1
-0.12856461107730865 0.038391899317502975 -0.2980968952178955 5131081 0 -1
-0.12856361269950867 0.03749391809105873 -0.2981622815132141 5460045 0 -1
-0.1285271942615509 0.037259045988321304 -0.2980947494506836 5591630 0 -1
-0.12877659499645233 0.037106696516275406 -0.29869017004966736 5722704 0 -1
-0.12876200675964355 0.036653365939855576 -0.2986902594566345 5591374 0 -1
-0.1287829875946045 0.036434806883335114 -0.2987558841705322 5591374 0 -1
-0.12851960957050323 0.03613625839352608 -0.2981618344783783 5788753 0 -1
-0.1287612020969391 0.035755399614572525 -0.29875630140304565 5723217 0 -1
-0.1285460889339447 0.0352477990090847 -0.29829108715057373 5657424 0 -1
-0.12874029576778412 0.03507683426141739 -0.29875874519348145 5591631 0 -1
-0.12853173911571503 0.034796204417943954 -0.29829171299934387 5525837 0 -1
-0.12828969955444336 0.03428402915596962 -0.297763854265213 5328459 0 -1
-0.12830907106399536 0.034065909683704376 -0.29782572388648987 5328459 0 -1
-0.1283019632101059 0.03384077921509743 -0.2978261709213257 5394252 0 -1
-0.1282949000597 0.033615730702877045 -0.29782673716545105 5262667 0 -1
-0.1282878816127777 0.03339075669646263 -0.2978273630142212 5065031 0 -1
-0.12828117609024048 0.033165931701660156 -0.297828733921051 4933702 0 -1
-0.12829984724521637 0.03294768184423447 -0.29788902401924133 5065030 0 -1
-0.12829279899597168 0.03272285312414169 -0.2978896200656891 5065030 0 -1
-0.1282861977815628 0.03249821066856384 -0.2978912591934204 4999237 0 -1
-0.12827271223068237 0.0320490300655365 -0.29789382219314575 4736323 0 -1
-0.12826600670814514 0.031824544072151184 -0.2978951930999756 4736578 0 -1
-0.12825964391231537 0.031600214540958405 -0.2978973984718323 4802115 0 -1
-0.12827728688716888 0.03138182312250137 -0.29795533418655396 4933444 0 -1
-0.12827061116695404 0.03115749917924404 -0.29795679450035095 4999237 0 -1
-0.12802931666374207 0.03065446764230728 -0.2974300980567932 4999494 0 -1
-0.12804634869098663 0.03043637052178383 -0.29748663306236267 5065031 0 -1
-0.12801669538021088 0.03020724095404148 -0.2974346876144409 5065287 0 -1
-0.12825550138950348 0.029818721115589142 -0.2980234622955322 4736065 0 -1
-0.12824930250644684 0.029594920575618744 -0.29802602529525757 4801858 0 -1
-0.12803705036640167 0.029323985800147057 -0.2975497245788574 4933444 0 -1
-0.12800860404968262 0.029095612466335297 -0.2975005805492401 4867907 0 -1
-0.1280246078968048 0.02887740172445774 -0.29755470156669617 4801858 0 -1
-0.12801828980445862 0.0286541860550642 -0.29755699634552 4670529 0 -1
-0.12801212072372437 0.028431059792637825 -0.29755958914756775 4538943 0 -1
-0.1280062049627304 0.02820805460214615 -0.29756277799606323 4604736 0 -1
-0.12802158296108246 0.027989767491817474 -0.2976154685020447 4670529 0 -1
-0.1280095875263214 0.027543963864445686 -0.2976215183734894 4670273 0 -1
-0.12800371646881104 0.027321182191371918 -0.297624796628952 4801859 0 -1
-0.1279979795217514 0.02709849178791046 -0.2976284325122833 4933701 0 -1
-0.12799227237701416 0.02687586471438408 -0.297632098197937 4999494 0 -1
-0.12800677120685577 0.026657508686184883 -0.2976827621459961 5065031 0 -1
-0.12800095975399017 0.02643495425581932 -0.29768621921539307 5130823 0 -1
-0.1280151903629303 0.02621656283736229 -0.2977363169193268 5196617 0 -1
-0.1279897540807724 0.025990109890699387 -0.2976941168308258 4999495 0 -1
-0.12800367176532745 0.02577170729637146 -0.29774343967437744 4802116 0 -1
-0.12799803912639618 0.025549395009875298 -0.29774728417396545 5131080 0 -1
-0.12799230217933655 0.025327125564217567 -0.29775092005729675 5525837 0 -1
-0.12798693776130676 0.02510499209165573 -0.2977554202079773 5591374 0 -1
-0.12800031900405884 0.024886561557650566 -0.29780352115631104 5591374 0 -1
-0.12799479067325592 0.024664485827088356 -0.29780763387680054 5657423 0 -1
-0.1279892474412918 0.024442464113235474 -0.29781171679496765 5854289 0 -1
-0.1279839128255844 0.024220546707510948 -0.29781627655029297 5788753 0 -1
-0.12797865271568298 0.023998698219656944 -0.2978209853172302 5788753 0 -1
-0.1279733031988144 0.02377689629793167 -0.29782551527023315 5657424 0 -1
-0.12798582017421722 0.023558441549539566 -0.2978716194629669 5591374 0 -1
-0.1279805451631546 0.0233367457985878 -0.29787635803222656 5591375 0 -1
-0.1279754489660263 0.023115137591958046 -0.29788145422935486 5657167 0 -1
-0.12798747420310974 0.022896653041243553 -0.2979263961315155 5854546 0 -1
-0.12796542048454285 0.022672127932310104 -0.2978920340538025 6051669 0 -1
-0.12797720730304718 0.022453662008047104 -0.29793646931648254 5854546 0 -1
-0.12797215580940247 0.02223227173089981 -0.2979417145252228 5657167 0 -1
-0.1277492344379425 0.021753426641225815 -0.29745662212371826 5065544 0 -1
-0.12797357141971588 0.021571245044469833 -0.2979959547519684 5131081 0 -1
-0.12796853482723236 0.021350063383579254 -0.298001229763031 5196874 0 -1
-0.12795910239219666 0.02090798132121563 -0.29801318049430847 5328458 0 -1
-0.12796971201896667 0.020689506083726883 -0.29805490374565125 5196873 0 -1
-0.1279648244380951 0.020468559116125107 -0.29806050658226013 5065287 0 -1
-0.12773071229457855 0.020211396738886833 -0.29753217101097107 4933701 0 -1
-0.12772606313228607 0.01999099738895893 -0.29753828048706055 4867908 0 -1
-0.12772156298160553 0.019770678132772446 -0.29754477739334106 4999494 0 -1
-0.12773141264915466 0.01955261081457138 -0.2975846827030182 5130823 0 -1
-0.12772682309150696 0.019332367926836014 -0.297590970993042 4867652 0 -1
-0.12772279977798462 0.018454037606716156 -0.29764944314956665 4670273 0 -1
-0.12770536541938782 0.01823222078382969 -0.29762575030326843 4604736 0 -1
-0.12771417200565338 0.01801421120762825 -0.29766327142715454 4407357 0 -1
-0.12770992517471313 0.01779438741505146 -0.29767030477523804 4341564 0 -1
-0.12770585715770721 0.017574649304151535 -0.29767775535583496 4538943 0 -1
-0.12771423161029816 0.01735665835440159 -0.2977142930030823 4736322 0 -1
-0.12769807875156403 0.017135385423898697 -0.2976935803890228 4670529 0 -1
-0.12770619988441467 0.016917428001761436 -0.2977294921875 4736066 0 -1
-0.1277059018611908 0.01626049168407917 -0.2977796494960785 4867907 0 -1
-0.12747256457805634 0.016012301668524742 -0.2972525358200073 4867651 0 -1
-0.1276983916759491 0.01582183875143528 -0.2977960705757141 4736066 0 -1
-0.12746502459049225 0.01557453814893961 -0.297268807888031 4736322 0 -1
-0.12769095599651337 0.01538341399282217 -0.29781270027160645 4999494 0 -1
-0.12769797444343567 0.015165556222200394 -0.2978459894657135 5131080 0 -1
-0.1274646669626236 0.014919586479663849 -0.2973187565803528 5130823 0 -1
-0.12769070267677307 0.014727436937391758 -0.2978629767894745 5065030 0 -1
-0.12769033014774323 0.014071822166442871 -0.29791298508644104 4867908 0 -1
-0.1276867687702179 0.01385299488902092 -0.29792162775993347 4933701 0 -1
-0.12768344581127167 0.013634247705340385 -0.29793086647987366 5196616 1 -1
-0.12768927216529846 0.013416512869298458 -0.29796144366264343 5393995 1 -1
-0.12767714262008667 0.013196944259107113 -0.2979500889778137 5525581 1 -1
-0.12768268585205078 0.012979255057871342 -0.29798001050949097 5657167 1 -1
-0.1276794672012329 0.012760710902512074 -0.2979894280433655 5657167 1 -1
-0.12767650187015533 0.012542245909571648 -0.29799947142601013 5591374 1 -1
-0.12699346244335175 0.012258186936378479 -0.29642215371131897 5460044 1 -1
-0.1272132247686386 0.011627636849880219 -0.29698577523231506 5591631 1 -1
-0.12721045315265656 0.011410214006900787 -0.29699620604515076 5525838 1 -1
-0.12721483409404755 0.011193472892045975 -0.29702329635620117 5525837 1 -1
-0.1274426430463791 0.010561196133494377 -0.2976060211658478 5722960 1 -1
-0.12743976712226868 0.010343603789806366 -0.29761624336242676 5657167 1 -1
-0.12766528129577637 0.009491363540291786 -0.29821068048477173 5196873 1 -1
-0.1276625692844391 0.009273634292185307 -0.2982213497161865 5196873 1 -1
-0.12765784561634064 0.008838373236358166 -0.2982442080974579 5262666 1 -1
-0.12788861989974976 0.008418809622526169 -0.29881730675697327 5328459 1 -1
-0.12788636982440948 0.008200956508517265 -0.29882901906967163 5328202 1 -1
-0.12811091542243958 0.007125535514205694 -0.2994387745857239 5065031 1 -1
-0.12810486555099487 0.006036452483385801 -0.2995096445083618 5525067 1 -1
-0.1280994862318039 0.004948517773300409 -0.2995820641517639 4933701 1 -1
-0.12809814512729645 0.004731053952127695 -0.2995959520339966 5130822 1 -1
-0.12809666991233826 0.004296302795410156 -0.2996264696121216 5196358 1 -1
-0.12670639157295227 0.0021021810825914145 -0.29654252529144287 4933445 1 -1
-0.12761351466178894 -0.0002572874363977462 -0.29885149002075195 5328202 1 -1
-0.12761293351650238 -0.0006884962785989046 -0.29888391494750977 6643271 1 -1
-0.127375066280365 -0.0017625348409637809 -0.2984110713005066 8549184 1 -1
-0.12737490236759186 -0.00197747815400362 -0.298427551984787 6380364 1 -1
-0.12737521529197693 -0.0024072565138339996 -0.2984619736671448 6051659 1 -1
-0.12714102864265442 -0.002831656951457262 -0.29794687032699585 9732668 1 -1
-0.12714125216007233 -0.0030460162088274956 -0.2979641854763031 11506990 1 -1
-0.12690788507461548 -0.003895878791809082 -0.2974843978881836 6445895 1 -1
-0.12690849602222443 -0.004109663888812065 -0.2975025773048401 5262666 1 -1
-0.12690910696983337 -0.004323412664234638 -0.29752081632614136 5196872 1 -1
-0.1269034743309021 -0.004536900669336319 -0.2975243628025055 5262409 1 -1
-0.12690414488315582 -0.004750566557049751 -0.29754266142845154 5459787 1 -1
-0.12690579891204834 -0.005177801940590143 -0.2975800335407257 4999494 1 -1
-0.1268996149301529 -0.005391068756580353 -0.29758232831954956 4867652 1 -1
-0.1268957555294037 -0.006244564428925514 -0.29764029383659363 4736066 0 -1
-0.1268966794013977 -0.006457929033786058 -0.2976591885089874 4801858 0 -1
-0.12689918279647827 -0.006884588394314051 -0.2976985275745392 4670273 0 -1
-0.12690044939517975 -0.0070978677831590176 -0.29771822690963745 4538943 0 -1
-0.12689310312271118 -0.007310616318136454 -0.29771775007247925 4407357 0 -1
-0.12689431011676788 -0.007523809093981981 -0.29773733019828796 4472894 0 -1
-0.12689268589019775 -0.008588738739490509 -0.29781708121299744 4144186 0 -1
-0.126887708902359 -0.009226933121681213 -0.29785555601119995 4604736 0 -1
-0.1268896758556366 -0.009439846500754356 -0.29787689447402954 4736323 0 -1
-0.12688083946704865 -0.009651906788349152 -0.2978728413581848 4802115 0 -1
-0.12688249349594116 -0.009864715859293938 -0.2978934347629547 4802115 0 -1
-0.12687928974628448 -0.010714792646467686 -0.29795268177986145 4999494 0 -1
-0.1268814653158188 -0.010927469469606876 -0.29797452688217163 5130824 0 -1
-0.1268760859966278 -0.011564224027097225 -0.2980118989944458 5591373 0 -1
-0.12687841057777405 -0.01177677046507597 -0.29803401231765747 5460044 0 -1
-0.1268681436777115 -0.011988096870481968 -0.29802659153938293 5328202 0 -1
-0.12687289714813232 -0.012413010001182556 -0.29807111620903015 5525837 0 -1
-0.1268671602010727 -0.013048830442130566 -0.2981075942516327 5657167 0 -1
-0.1268838495016098 -0.013262628577649593 -0.298163503408432 5525582 0 -1
-0.1268727034330368 -0.01347348466515541 -0.29815390706062317 5788753 0 -1
-0.12687554955482483 -0.013685779646039009 -0.2981772720813751 6051924 0 -1
-0.12686704099178314 -0.014108704403042793 -0.29819056391716003 6380890 0 -1
-0.12686994671821594 -0.014320899732410908 -0.29821404814720154 6183511 0 -1
-0.12687306106090546 -0.014533088542521 -0.29823800921440125 5986132 0 -1
-0.12685516476631165 -0.015377899631857872 -0.29826244711875916 5262666 0 -1
-0.12687404453754425 -0.01559184305369854 -0.29832348227500916 5328203 0 -1
-0.12686482071876526 -0.016013873741030693 -0.2983350157737732 5328460 0 -1
-0.1268554925918579 -0.016435682773590088 -0.29834631085395813 5394252 0 -1
-0.12685899436473846 -0.01664757914841175 -0.2983711361885071 5460044 0 -1
-0.12686042487621307 -0.017704444006085396 -0.2984575033187866 4933701 0 -1
-0.12685036659240723 -0.018125420436263084 -0.2984670102596283 5065031 0 -1
-0.12687258422374725 -0.018339766189455986 -0.29853585362434387 5131080 0 -1
-0.1268583983182907 -0.01854882575571537 -0.2985190451145172 4933701 0 -1
-0.12707258760929108 -0.018791576847434044 -0.29903969168663025 4802115 0 -1
-0.12683936953544617 -0.020444117486476898 -0.29862335324287415 4933444 0 -1
-0.12685313820838928 -0.02107844315469265 -0.29870539903640747 4538943 0 -1
-0.126856729388237 -0.022131850942969322 -0.29879650473594666 4670529 0 -1
-0.12662288546562195 -0.022721143439412117 -0.29829519987106323 4802115 0 -1
-0.12661126255989075 -0.023138897493481636 -0.29830074310302734 5065030 0 -1
-0.126616433262825 -0.023349719122052193 -0.2983294129371643 5131080 0 -1
-0.1266210526227951 -0.024399444460868835 -0.298422634601593 5196873 0 -1
-0.12660904228687286 -0.024816390126943588 -0.2984272241592407 4999494 0 -1
-0.12661467492580414 -0.0250270813703537 -0.29845696687698364 5065287 0 -1
-0.12637543678283691 -0.02539806067943573 -0.29792582988739014 5459787 0 -1
-0.1263812631368637 -0.025608325377106667 -0.2979559898376465 5525324 0 -1
-0.12636171281337738 -0.026649128645658493 -0.29799190163612366 5460046 0 -1
-0.1263737678527832 -0.02790433168411255 -0.29811859130859375 5460046 0 -1
-0.12614087760448456 -0.02931004762649536 -0.2976835370063782 4999494 0 -1
-0.12826743721961975 0.03769705072045326 -0.29802682995796204 5591374 0 -1
-0.12828907370567322 0.03747915104031563 -0.2980939745903015 5591373 0 -1
-0.12825267016887665 0.037244364619255066 -0.29802626371383667 5525838 0 -1
-0.12827402353286743 0.03702641278505325 -0.298092782497406 5657167 0 -1
-0.12825947999954224 0.03657408431172371 -0.29809272289276123 5591374 0 -1
-0.1282804310321808 0.03635602071881294 -0.29815831780433655 5657167 0 -1
-0.12824499607086182 0.03612203896045685 -0.2980928122997284 5854546 0 -1
-0.1282656043767929 0.035903915762901306 -0.29815763235092163 5986132 0 -1
-0.12825842201709747 0.03567803278565407 -0.29815781116485596 5920595 0 -1
-0.12825119495391846 0.03545219451189041 -0.2981579005718231 5789010 0 -1
-0.12827138602733612 0.035233959555625916 -0.29822176694869995 5723217 0 -1
-0.12823720276355743 0.03500085696578026 -0.2981591820716858 5591631 0 -1
-0.1280294805765152 0.03472084924578667 -0.29769307374954224 5460044 0 -1
-0.12802226841449738 0.03449563682079315 -0.2976931929588318 5262667 0 -1
-0.12801527976989746 0.034270551055669785 -0.29769381880760193 5131081 0 -1
-0.12803466618061066 0.034052543342113495 -0.29775574803352356 5131081 0 -1
-0.1280275583267212 0.033827509731054306 -0.2977561354637146 5328460 0 -1
-0.12799464166164398 0.03359576687216759 -0.29769644141197205 5328460 0 -1
-0.12801359593868256 0.03337771072983742 -0.29775741696357727 5131081 0 -1
-0.12800675630569458 0.03315294533967972 -0.29775840044021606 5196616 0 -1
-0.1279999315738678 0.03292825445532799 -0.29775941371917725 5393738 0 -1
-0.12801845371723175 0.03271009400486946 -0.2978193759918213 5393738 0 -1
-0.12801145017147064 0.032485444098711014 -0.29782000184059143 5196617 0 -1
-0.12799811363220215 0.03203649818897247 -0.2978227436542511 4867908 0 -1
-0.12776364386081696 0.03175550326704979 -0.29729408025741577 4868164 0 -1
-0.12775704264640808 0.03153160586953163 -0.29729557037353516 5065030 0 -1
-0.12775062024593353 0.03130782023072243 -0.29729747772216797 5130823 0 -1
-0.12776808440685272 0.03108990751206875 -0.2973549962043762 5065287 0 -1
-0.12776154279708862 0.030866174027323723 -0.29735666513442993 4999238 0 -1
-0.12775500118732452 0.03064250946044922 -0.29735830426216125 4802115 0 -1
-0.1277719885110855 0.030424509197473526 -0.29741472005844116 4736579 0 -1
-0.1277424395084381 0.030195487663149834 -0.2973628044128418 4802372 0 -1
-0.1277526319026947 0.029754025861620903 -0.29742029309272766 4736579 0 -1
-0.1277463287115097 0.02953069470822811 -0.29742252826690674 4802115 0 -1
-0.12774017453193665 0.02930746227502823 -0.2974250912666321 4867908 0 -1
-0.12773405015468597 0.02908429503440857 -0.2974276840686798 4802115 0 -1
-0.12775006890296936 0.028866199776530266 -0.2974819242954254 4670529 0 -1
-0.1277439296245575 0.028643116354942322 -0.29748445749282837 4538944 0 -1
-0.127737894654274 0.028420129790902138 -0.2974873483181 4473150 0 -1
-0.12773187458515167 0.02819719724357128 -0.2974902093410492 4473407 0 -1
-0.12772583961486816 0.027974329888820648 -0.297493040561676 4604736 0 -1
-0.1277351677417755 0.02753339149057865 -0.2975485324859619 4801859 0 -1
-0.12772925198078156 0.027310701087117195 -0.2975516617298126 4736323 0 -1
-0.12772339582443237 0.02708808332681656 -0.29755493998527527 4670530 0 -1
-0.12771765887737274 0.026865553110837936 -0.297558456659317 4867652 0 -1
-0.12773220241069794 0.026647312566637993 -0.29760923981666565 5065030 0 -1
-0.12772653996944427 0.026424888521432877 -0.2976129651069641 5262408 0 -1
-0.1277407705783844 0.0262066051363945 -0.29766303300857544 5393995 0 -1
-0.1277150809764862 0.02598019316792488 -0.29762008786201477 5196616 0 -1
-0.12772902846336365 0.025761906057596207 -0.29766952991485596 4802116 0 -1
-0.1277177929878235 0.02531755343079567 -0.2976771295070648 5591374 0 -1
-0.12771230936050415 0.025095496326684952 -0.2976812422275543 5525581 0 -1
-0.12772566080093384 0.024877170100808144 -0.2977293133735657 5394252 0 -1
-0.12772007286548615 0.024655181914567947 -0.2977331876754761 5460045 0 -1
-0.12771467864513397 0.02443329244852066 -0.2977375388145447 5591374 0 -1
-0.12770915031433105 0.02421143837273121 -0.2977415919303894 5591375 0 -1
-0.1277039796113968 0.023989707231521606 -0.2977464199066162 5591631 0 -1
-0.12769871950149536 0.023768022656440735 -0.2977510690689087 5460046 0 -1
-0.1277112066745758 0.023549672216176987 -0.2977971136569977 5393996 0 -1
-0.1277007907629013 0.023106561973690987 -0.29780668020248413 5460045 0 -1
-0.1276957243680954 0.022885121405124664 -0.2978117763996124 5525582 0 -1
-0.12769068777561188 0.022663747891783714 -0.2978169620037079 5591375 0 -1
-0.12770242989063263 0.022445376962423325 -0.297861248254776 5525838 0 -1
-0.12769746780395508 0.022224104031920433 -0.2978666126728058 5460045 0 -1
-0.12770378589630127 0.021784504875540733 -0.2979152202606201 4999495 0 -1
-0.12768276035785675 0.02156066708266735 -0.2978830933570862 5131081 0 -1
-0.127693772315979 0.02134229987859726 -0.2979257106781006 5197131 0 -1
-0.1274658441543579 0.02064494974911213 -0.297444611787796 5131080 0 -1
-0.12746110558509827 0.02042452059686184 -0.297450453042984 5196617 0 -1
-0.12745630741119385 0.02020414173603058 -0.29745617508888245 4933445 0 -1
-0.1274515688419342 0.01998383365571499 -0.2974620461463928 4736322 0 -1
-0.12744693458080292 0.01976359635591507 -0.2974681258201599 4933701 0 -1
-0.12745679914951324 0.01954564079642296 -0.2975080609321594 5065030 0 -1
-0.12745237350463867 0.01932552456855774 -0.29751458764076233 4867651 0 -1
-0.12744782865047455 0.019105447456240654 -0.2975209057331085 4670529 0 -1
-0.12744814157485962 0.01844758354127407 -0.2975723445415497 4670530 0 -1
-0.12743084132671356 0.018225885927677155 -0.2975488305091858 4538944 0 -1
-0.12743966281414032 0.01800798438489437 -0.2975863516330719 4407357 0 -1
-0.12743547558784485 0.017788276076316833 -0.29759350419044495 4341564 0 -1
-0.12743130326271057 0.017568625509738922 -0.2976006269454956 4473407 0 -1
-0.1274397373199463 0.017350750043988228 -0.2976372539997101 4670273 0 -1
-0.12742331624031067 0.01712954230606556 -0.29761579632759094 4670529 0 -1
-0.12743143737316132 0.016911694779992104 -0.2976516783237457 4736066 0 -1
-0.12743142247200012 0.01625511422753334 -0.2977023720741272 4867908 0 -1
-0.12742747366428375 0.016035839915275574 -0.29771003127098083 4867652 0 -1
-0.12742358446121216 0.01581662893295288 -0.2977178692817688 4670529 0 -1
-0.12741994857788086 0.015597503632307053 -0.29772627353668213 4670529 0 -1
-0.12741631269454956 0.015378434211015701 -0.29773470759391785 4933701 0 -1
-0.12742331624031067 0.015160683542490005 -0.2977679967880249 5065287 0 -1
-0.1274196207523346 0.01494169607758522 -0.2977762520313263 4999494 0 -1
-0.12741616368293762 0.014722788706421852 -0.29778504371643066 4999237 0 -1
-0.12741543352603912 0.01406745333224535 -0.2978340983390808 4802115 0 -1
-0.12741217017173767 0.013848763890564442 -0.2978433668613434 4867908 1 -1
-0.1274087280035019 0.013630110770463943 -0.29785221815109253 5130823 1 -1
-0.12741459906101227 0.01341248769313097 -0.2978828549385071 5393994 1 -1
-0.12741127610206604 0.013193936087191105 -0.2978920042514801 5656909 1 -1
-0.1271786391735077 0.012952081859111786 -0.2973649501800537 5722702 1 -1
-0.1269463300704956 0.012711098417639732 -0.296838641166687 5591374 1 -1
-0.12694329023361206 0.012493517249822617 -0.2968483567237854 5525581 1 -1
-0.1269422322511673 0.011841830797493458 -0.29689639806747437 5525838 1 -1
-0.1269407868385315 0.01119049359112978 -0.2969435453414917 5591374 1 -1
-0.12739050388336182 0.009489256888628006 -0.29813075065612793 5328459 1 -1
-0.12761318683624268 0.008852551691234112 -0.2987026572227478 5393996 1 -1
-0.1276136040687561 0.00841725617647171 -0.298737496137619 5196873 1 -1
-0.12761126458644867 0.008199505507946014 -0.2987489700317383 5131336 1 -1
-0.12783540785312653 0.007124628406018019 -0.29935845732688904 4999238 1 -1
-0.12783366441726685 0.0069068013690412045 -0.29937130212783813 4999238 1 -1
-0.12783512473106384 0.006689189001917839 -0.2993917167186737 4999237 1 -1
-0.12783317267894745 0.006471439264714718 -0.2994040548801422 5196616 1 -1
-0.1278296262025833 0.006036100443452597 -0.29942962527275085 5196616 1 -1
-0.12782397866249084 0.0049486965872347355 -0.29950112104415894 4802115 1 -1
-0.12644024193286896 0.0036060113925486803 -0.29635941982269287 4932673 1 -1
-0.12643583118915558 0.002747309161350131 -0.2964160740375519 4999238 1 -1
-0.12734219431877136 0.0003923087497241795 -0.29872632026672363 5065287 1 -1
-0.12733903527259827 -0.00003893235407304019 -0.29875263571739197 5196873 1 -1
-0.12733861804008484 -0.00025448735686950386 -0.29876846075057983 5394251 1 -1
-0.1273382306098938 -0.0006854759994894266 -0.2988012135028839 6708808 1 -1
-0.12733802199363708 -0.00090090959565714 -0.29881760478019714 9469756 1 -1
-0.12710052728652954 -0.0017589643830433488 -0.2983274459838867 8417855 1 -1
-0.12710054218769073 -0.001973799429833889 -0.29834431409835815 6248778 1 -1
-0.12687136232852936 -0.002399016637355089 -0.29783985018730164 5985866 1 -1
-0.12686696648597717 -0.002827538177371025 -0.29786306619644165 9601083 1 -1
-0.1266380101442337 -0.0030362913385033607 -0.2973422110080719 11506989 1 -1
-0.12663479149341583 -0.004104882013052702 -0.2974182665348053 5394251 1 -1
-0.1266297847032547 -0.004531895741820335 -0.29743990302085876 5393995 1 -1
-0.12663042545318604 -0.0047454494051635265 -0.29745808243751526 5394252 1 -1
-0.12663212418556213 -0.005172464065253735 -0.2974955141544342 5065031 1 -1
-0.12662188708782196 -0.006238656118512154 -0.2975549101829529 4933444 0 -1
-0.1266230195760727 -0.006451920140534639 -0.2975742518901825 4933443 0 -1
-0.1266181915998459 -0.007091041654348373 -0.2976129949092865 4341564 0 -1
-0.12661944329738617 -0.007304158993065357 -0.2976325750350952 4473150 0 -1
-0.12662078440189362 -0.007517247460782528 -0.29765239357948303 4538687 0 -1
-0.12661902606487274 -0.008581608533859253 -0.2977316081523895 4078393 0 -1
-0.1266208291053772 -0.0087945107370615 -0.2977524995803833 4143929 0 -1
-0.12661418318748474 -0.009219474159181118 -0.2977701723575592 4472894 0 -1
-0.12661585211753845 -0.009432254359126091 -0.2977907657623291 4538943 0 -1
-0.1266070455312729 -0.009644201956689358 -0.297786682844162 4604736 0 -1
-0.12660568952560425 -0.010706541128456593 -0.29786673188209534 4802372 0 -1
-0.12660779058933258 -0.010919095948338509 -0.29788824915885925 4933701 0 -1
-0.12660017609596252 -0.01134305726736784 -0.2979036271572113 5196616 0 -1
-0.12660253047943115 -0.011555522680282593 -0.29792580008506775 5262922 0 -1
-0.1266048699617386 -0.011767957359552383 -0.29794788360595703 5196873 0 -1
-0.1266072392463684 -0.01198036689311266 -0.29797008633613586 5065287 0 -1
-0.1265936642885208 -0.013039341196417809 -0.2980211675167084 5657167 0 -1
-0.12659631669521332 -0.013251558877527714 -0.2980440557003021 5591374 0 -1
-0.12660205364227295 -0.01367595512419939 -0.29809072613716125 5854546 0 -1
-0.12659357488155365 -0.014098652638494968 -0.298103928565979 6446427 0 -1
-0.12659649550914764 -0.014310737140476704 -0.2981274127960205 6183767 0 -1
-0.1265815943479538 -0.015367151238024235 -0.2981751561164856 5328202 0 -1
-0.12660053372383118 -0.015580992214381695 -0.2982363700866699 5459788 0 -1
-0.12659162282943726 -0.01600283570587635 -0.2982484996318817 5591631 0 -1
-0.1265821009874344 -0.0164243895560503 -0.2982591986656189 5394252 0 -1
-0.12658555805683136 -0.016636168584227562 -0.2982838749885559 5262666 0 -1
-0.1266048103570938 -0.017694955691695213 -0.2984119951725006 5196617 0 -1
-0.1268053501844406 -0.01814589649438858 -0.2989177703857422 5262409 0 -1
-0.12680934369564056 -0.01835787482559681 -0.29894372820854187 5196873 0 -1
-0.1265707165002823 -0.018745237961411476 -0.2984142005443573 4867908 0 -1
-0.12657275795936584 -0.019799696281552315 -0.298501580953598 5065030 0 -1
-0.12657701969146729 -0.020011089742183685 -0.29852813482284546 5130823 0 -1
-0.12656618654727936 -0.020430685952305794 -0.29853555560112 4736065 0 -1
-0.12659087777137756 -0.02064531482756138 -0.2986103296279907 4670273 0 -1
-0.12657999992370605 -0.021064680069684982 -0.2986176311969757 4275771 0 -1
-0.12634380161762238 -0.023334722965955734 -0.29824119806289673 5328202 0 -1
-0.1263253390789032 -0.0243794284760952 -0.29827967286109924 5196873 0 -1
-0.1263541430234909 -0.024594545364379883 -0.2983640432357788 5328459 0 -1
-0.12633630633354187 -0.02480057068169117 -0.29833829402923584 5196873 0 -1
-0.12634213268756866 -0.025011185556650162 -0.2983684539794922 5196873 0 -1
-0.12610317766666412 -0.025381924584507942 -0.29783689975738525 5459788 0 -1
-0.12610912322998047 -0.025592096149921417 -0.2978672683238983 5525581 0 -1
-0.12610161304473877 -0.027886833995580673 -0.29802921414375305 5394252 0 -1
-0.1258692741394043 -0.02929178811609745 -0.2975940406322479 4999494 0 -1
-0.12821298837661743 0.03752240911126137 -0.2984871566295624 5657167 0 -1
-0.12820552289485931 0.03729576990008354 -0.2984866201877594 5657423 0 -1
-0.12799973785877228 0.037011854350566864 -0.29802432656288147 5657168 0 -1
-0.12798506021499634 0.03655967861413956 -0.2980238199234009 5591375 0 -1
-0.1282052844762802 0.03639829531311989 -0.298553466796875 5591374 0 -1
-0.12819799780845642 0.03617199510335922 -0.29855337738990784 5722960 0 -1
-0.1282186657190323 0.03595359995961189 -0.2986183762550354 5788753 0 -1
-0.12821149826049805 0.03572741523385048 -0.2986185550689697 5788753 0 -1
-0.1279766857624054 0.035438258200883865 -0.2980884909629822 5788753 0 -1
-0.12751540541648865 0.035087645053863525 -0.29703080654144287 5789010 0 -1
-0.12750840187072754 0.03486289829015732 -0.2970312833786011 5722960 0 -1
-0.12775518000125885 0.03470715880393982 -0.2976229786872864 5460045 0 -1
-0.12774090468883514 0.03425702825188637 -0.2976233661174774 5196874 0 -1
-0.12776029109954834 0.03403913602232933 -0.2976853549480438 5197130 0 -1
-0.1277531385421753 0.033814188092947006 -0.29768553376197815 5394253 0 -1
-0.12749305367469788 0.033522799611091614 -0.29709628224372864 5394253 0 -1
-0.12773917615413666 0.03336458280682564 -0.2976866364479065 5262410 0 -1
-0.1277322918176651 0.0331399030983448 -0.29768744111061096 5262410 0 -1
-0.12772566080093384 0.032915353775024414 -0.2976888120174408 5393994 0 -1
-0.1277441680431366 0.03269730508327484 -0.29774877429008484 5328458 0 -1
-0.1277371644973755 0.03247274458408356 -0.29774928092956543 5196617 0 -1
-0.1277237981557846 0.03202398866415024 -0.297751784324646 4802372 0 -1
-0.1277170479297638 0.031799692660570145 -0.29775291681289673 4867909 0 -1
-0.12771044671535492 0.03157549351453781 -0.29775431752204895 5130824 0 -1
-0.12749384343624115 0.031077716499567032 -0.29728296399116516 5065288 0 -1
-0.1274874210357666 0.030854113399982452 -0.2972848415374756 4933702 0 -1
-0.1274809092283249 0.030630556866526604 -0.2972864806652069 4802115 0 -1
-0.12747442722320557 0.030407067388296127 -0.297288179397583 4736323 0 -1
-0.12746813893318176 0.030183684080839157 -0.2972903549671173 4736322 0 -1
-0.12748481333255768 0.029965762048959732 -0.2973460257053375 4736322 0 -1
-0.12747851014137268 0.029742464423179626 -0.29734814167022705 4801858 0 -1
-0.12747220695018768 0.029519233852624893 -0.2973502576351166 4802115 0 -1
-0.12746602296829224 0.029296090826392174 -0.29735267162323 4867651 0 -1
-0.12745989859104156 0.02907302789390087 -0.2973552346229553 4802115 0 -1
-0.12747584283351898 0.02885502390563488 -0.2974092662334442 4736322 0 -1
-0.12746959924697876 0.028632018715143204 -0.2974115312099457 4670529 0 -1
-0.12746348977088928 0.02840910665690899 -0.297414094209671 4604736 0 -1
-0.12745743989944458 0.02818627469241619 -0.2974168658256531 4604736 0 -1
-0.1274515688419342 0.027963539585471153 -0.2974199652671814 4670528 0 -1
-0.1274607628583908 0.02752278372645378 -0.297475129365921 4736322 0 -1
-0.1274549514055252 0.027300210669636726 -0.2974783778190613 4736322 0 -1
-0.12744908034801483 0.027077691629529 -0.2974815368652344 4670530 0 -1
-0.1274433135986328 0.02685525454580784 -0.2974849045276642 4867908 0 -1
-0.127457857131958 0.02663712576031685 -0.2975357174873352 5130822 0 -1
-0.12745217978954315 0.026414796710014343 -0.2975393235683441 5262665 0 -1
-0.1274462789297104 0.02619248256087303 -0.29754236340522766 5459787 0 -1
-0.1274406909942627 0.025970295071601868 -0.2975461781024933 5328202 0 -1
-0.12745460867881775 0.02575211226940155 -0.2975955605506897 5262152 0 -1
-0.12744340300559998 0.025307968258857727 -0.2976031005382538 5591374 0 -1
-0.1274377554655075 0.025085976347327232 -0.29760676622390747 5525837 0 -1
-0.1274511069059372 0.02486775629222393 -0.29765480756759644 5394252 0 -1
-0.12744562327861786 0.024645889177918434 -0.2976588308811188 5394252 0 -1
-0.1274401843547821 0.02442409284412861 -0.29766300320625305 5393995 0 -1
-0.12743468582630157 0.024202344939112663 -0.297666996717453 5525838 0 -1
-0.12742945551872253 0.02398070879280567 -0.2976716458797455 5723217 0 -1
-0.1274241954088211 0.023759128525853157 -0.2976762652397156 5525582 0 -1
-0.12743668258190155 0.023540882393717766 -0.2977222502231598 5262666 0 -1
-0.12742634117603302 0.023097986355423927 -0.29773181676864624 5525838 0 -1
-0.12742117047309875 0.02287663146853447 -0.29773664474487305 5460046 0 -1
-0.12741617858409882 0.022655365988612175 -0.2977418303489685 5459789 0 -1
-0.12741124629974365 0.022434169426560402 -0.2977471649646759 5394252 0 -1
-0.12742285430431366 0.022215915843844414 -0.29779118299484253 5328459 0 -1
-0.12742924690246582 0.021776538342237473 -0.29783985018730164 4999494 0 -1
-0.12717966735363007 0.021514134481549263 -0.29727333784103394 5065288 0 -1
-0.12719066441059113 0.021296268329024315 -0.29731589555740356 5131081 0 -1
-0.12718094885349274 0.020855341106653214 -0.29732686281204224 5065286 0 -1
-0.12742027640342712 0.020674588158726692 -0.29790323972702026 5130823 0 -1
-0.12718673050403595 0.020417137071490288 -0.29737406969070435 5130824 0 -1
-0.12718193233013153 0.020196864381432533 -0.2973797023296356 4933701 0 -1
-0.1271771937608719 0.019976656883955002 -0.29738548398017883 4802115 0 -1
-0.12717276811599731 0.019756555557250977 -0.29739198088645935 4867908 0 -1
-0.12718261778354645 0.019538704305887222 -0.2974318563938141 4933701 0 -1
-0.12717796862125397 0.019318658858537674 -0.2974378168582916 4867651 0 -1
-0.12717339396476746 0.019098682329058647 -0.2974439561367035 4736322 0 -1
-0.12717388570308685 0.018441159278154373 -0.29749566316604614 4801859 0 -1
-0.12715639173984528 0.018219536170363426 -0.2974715828895569 4736066 0 -1
-0.12716522812843323 0.01800174079835415 -0.297509104013443 4538943 0 -1
-0.127160906791687 0.017782120034098625 -0.2975158393383026 4473150 0 -1
-0.12716524302959442 0.017344817519187927 -0.2975597083568573 4604737 0 -1
-0.12714901566505432 0.017123738303780556 -0.2975385785102844 4736322 0 -1
-0.12715715169906616 0.016905996948480606 -0.2975744605064392 4801859 0 -1
-0.12715695798397064 0.01624971069395542 -0.2976245582103729 4802115 0 -1
-0.12715311348438263 0.016030557453632355 -0.2976324260234833 4736322 0 -1
-0.12714923918247223 0.015811452642083168 -0.29764020442962646 4736066 0 -1
-0.12714546918869019 0.015592417679727077 -0.29764822125434875 4736322 0 -1
-0.12714195251464844 0.015373464673757553 -0.2976568341255188 4867652 0 -1
-0.12714892625808716 0.015155819244682789 -0.2976900041103363 4933700 0 -1
-0.12714524567127228 0.01493693795055151 -0.2976982593536377 4933444 0 -1
-0.12714166939258575 0.014718122780323029 -0.2977067232131958 4999237 0 -1
-0.12714102864265442 0.014063116163015366 -0.29775577783584595 4933701 1 -1
-0.12713763117790222 0.013844520784914494 -0.2977646589279175 4999494 1 -1
-0.12714014947414398 0.01340846624225378 -0.2978042662143707 5393995 1 -1
-0.12713681161403656 0.013190017081797123 -0.2978132665157318 5657166 1 -1
-0.12644405663013458 0.012684454210102558 -0.29622402787208557 5525581 1 -1
-0.1266624629497528 0.01140403188765049 -0.2968364357948303 5525838 1 -1
-0.1266668438911438 0.011187506839632988 -0.29686346650123596 5525837 1 -1
-0.12689273059368134 0.010990193113684654 -0.29740971326828003 5459789 1 -1
-0.1268899142742157 0.010772730223834515 -0.2974199056625366 5591374 1 -1
-0.12689390778541565 0.010555884800851345 -0.297446072101593 5788753 1 -1
-0.12711593508720398 0.0094871511682868 -0.29805073142051697 5460045 1 -1
-0.12733834981918335 0.008850781247019768 -0.29862284660339355 5328459 1 -1
-0.12733857333660126 0.008415689691901207 -0.2986571192741394 5196616 1 -1
-0.12733639776706696 0.008198056370019913 -0.29866886138916016 5131080 1 -1
-0.12756037712097168 0.007123737595975399 -0.29927870631217957 4999494 1 -1
-0.12755988538265228 0.0066885026171803474 -0.2993113398551941 4999238 1 -1
-0.12755794823169708 0.006470862310379744 -0.2993236482143402 5065287 1 -1
-0.1275542676448822 0.006035733036696911 -0.29934877157211304 5065030 1 -1
-0.12755019962787628 0.005166174378246069 -0.2994067966938019 4736322 1 -1
-0.1275487095117569 0.004948876798152924 -0.29942014813423157 4933701 1 -1
-0.12617000937461853 0.0042509594932198524 -0.29623377323150635 4999236 1 -1
-0.12616746127605438 0.0038214672822505236 -0.296261191368103 4933187 1 -1
-0.12616696953773499 0.0036068097688257694 -0.296276718378067 4933187 1 -1
-0.12616577744483948 0.0033921762369573116 -0.2962906062602997 4998723 1 -1
-0.12706762552261353 0.0003947789955418557 -0.29864370822906494 5065030 1 -1
-0.12683387100696564 -0.0006812200299464166 -0.2981780469417572 6577478 1 -1
-0.12683379650115967 -0.0008961546118371189 -0.29819464683532715 9469498 1 -1
-0.12659712135791779 -0.0017522217240184546 -0.2977050542831421 8483647 1 -1
-0.126597061753273 -0.001966556767001748 -0.29772162437438965 6248778 1 -1
-0.12659725546836853 -0.0023951136972755194 -0.29775547981262207 5920073 1 -1
-0.12636417150497437 -0.0028183110989630222 -0.29724061489105225 9535545 1 -1
-0.1263645440340042 -0.003032064763829112 -0.2972581386566162 11441453 1 -1
-0.12636472284793854 -0.003245775820687413 -0.29727524518966675 12033065 1 -1
-0.12636065483093262 -0.003886534133926034 -0.2973156273365021 6511685 1 -1
-0.12636105716228485 -0.004100090358406305 -0.2973332703113556 5262666 1 -1
-0.1263618916273117 -0.004313623066991568 -0.2973518669605255 5328203 1 -1
-0.12635622918605804 -0.004526887089014053 -0.29735517501831055 5393995 1 -1
-0.12635689973831177 -0.0047403303906321526 -0.2973734140396118 5328202 1 -1
-0.1263575255870819 -0.004953735042363405 -0.29739153385162354 5196873 1 -1
-0.12635840475559235 -0.005167113151401281 -0.2974102199077606 5065031 1 -1
-0.1263522356748581 -0.005380155052989721 -0.29741233587265015 4999237 1 -1
-0.1263483762741089 -0.006232755724340677 -0.297469824552536 4933701 0 -1
-0.12634940445423126 -0.0064459010027348995 -0.29748886823654175 4867907 0 -1
-0.12634460628032684 -0.007084686774760485 -0.2975274324417114 4275771 0 -1
-0.12634578347206116 -0.007297688629478216 -0.2975468635559082 4538687 0 -1
-0.12634709477424622 -0.007510662078857422 -0.2975665032863617 4604480 0 -1
-0.12633728981018066 -0.008786565624177456 -0.29764312505722046 4144186 0 -1
