VERSION .7
FIELDS x y z rgb label object
SIZE 4 4 4 4 4 4
TYPE F F F I I I
COUNT 1 1 1 1 1 1
WIDTH 636
HEIGHT 1
POINTS 636
VIEWPOINT 0 0 0 1 0 0 0
DATA ascii
-0.13123542070388794 -0.023451099172234535 -0.25466594099998474 5591631 0 -1
-0.13124214112758636 -0.02363596484065056 -0.25469714403152466 5854289 0 -1
-0.1312321275472641 -0.024001387879252434 -0.25471410155296326 6051668 0 -1
-0.13122870028018951 -0.024551378563046455 -0.2547619938850403 5657424 0 -1
-0.13122524321079254 -0.025101087987422943 -0.25480979681015015 5723217 0 -1
-0.13123226165771484 -0.025285843759775162 -0.25484156608581543 5657424 0 -1
-0.13122902810573578 -0.025835266336798668 -0.2548897862434387 5459788 0 -1
-0.13123638927936554 -0.026020018383860588 -0.2549222409725189 5393995 0 -1
-0.1312333196401596 -0.026569148525595665 -0.2549707293510437 5131080 0 -1
-0.13121499121189117 -0.026748603209853172 -0.2549532949924469 4999750 0 -1
-0.13122254610061646 -0.026933293789625168 -0.25498610734939575 4933701 0 -1
-0.131211519241333 -0.027297213673591614 -0.2550009787082672 4736323 0 -1
-0.13122732937335968 0.04417666047811508 -0.24848636984825134 5065287 0 -1
-0.13121680915355682 0.043978918343782425 -0.24848447740077972 5262410 0 -1
-0.13120627403259277 0.04378123581409454 -0.2484825849533081 5328202 0 -1
-0.13122044503688812 0.043397706001996994 -0.2485455572605133 5328201 0 -1
-0.1312100738286972 0.04320019856095314 -0.24854396283626556 5393994 0 -1
-0.13118937611579895 0.04280538856983185 -0.24854090809822083 5525837 0 -1
-0.13120326399803162 0.04242200031876564 -0.24860337376594543 5328202 0 -1
-0.13119302690029144 0.04222479090094566 -0.24860206246376038 5130823 0 -1
-0.13118276000022888 0.042027633637189865 -0.24860070645809174 5328202 0 -1
-0.1312064230442047 0.04184134304523468 -0.24866363406181335 5657167 0 -1
-0.1311962604522705 0.04164427891373634 -0.24866247177124023 5525837 0 -1
-0.13118621706962585 0.041447315365076065 -0.24866154789924622 5262666 0 -1
-0.1314142644405365 0.04113122820854187 -0.24913007020950317 5131080 0 -1
-0.13140414655208588 0.04093405231833458 -0.2491290420293808 5328459 0 -1
-0.1313941776752472 0.040736980736255646 -0.2491282820701599 5591374 0 -1
-0.13138432800769806 0.040539998561143875 -0.24912774562835693 5394251 0 -1
-0.13137467205524445 0.04034314677119255 -0.24912762641906738 5131080 0 -1
-0.13138753175735474 0.0399593822658062 -0.24918831884860992 4933701 0 -1
-0.13137777149677277 0.03976261615753174 -0.24918796122074127 5065287 0 -1
-0.13136816024780273 0.03956595063209534 -0.2491878867149353 5262409 0 -1
-0.1313903033733368 0.03937886282801628 -0.24924807250499725 5262409 0 -1
-0.13138070702552795 0.03918227180838585 -0.24924805760383606 5327945 0 -1
-0.13136155903339386 0.03878927230834961 -0.24924807250499725 4933444 0 -1
-0.13138319551944733 0.038602035492658615 -0.24930733442306519 4801859 0 -1
-0.131373792886734 0.03840569034218788 -0.24930769205093384 4670529 0 -1
-0.13136424124240875 0.03820935636758804 -0.249307781457901 4736065 0 -1
-0.13137608766555786 0.03782575950026512 -0.2493666261434555 4933444 0 -1
-0.1313667893409729 0.0376296229660511 -0.24936720728874207 5130566 0 -1
-0.13134823739528656 0.037237536162137985 -0.24936841428279877 5196359 0 -1
-0.13135969638824463 0.036854088306427 -0.24942661821842194 5065029 0 -1
-0.1313505619764328 0.036658234894275665 -0.24942746758460999 4999493 0 -1
-0.131341353058815 0.03646242246031761 -0.24942821264266968 4999494 0 -1
-0.13136152923107147 0.036274779587984085 -0.24948479235172272 5130823 0 -1
-0.13134349882602692 0.03588344529271126 -0.2494869977235794 5196615 0 -1
-0.13133467733860016 0.035687919706106186 -0.2494884729385376 5196615 0 -1
-0.13135439157485962 0.03550015762448311 -0.24954421818256378 5130822 0 -1
-0.13134530186653137 0.035304632037878036 -0.24954518675804138 5130823 0 -1
-0.13133655488491058 0.035109248012304306 -0.2495468407869339 5459532 0 -1
-0.13134697079658508 0.03472602367401123 -0.24960312247276306 5656910 0 -1
-0.13133810460567474 0.03453073278069496 -0.24960455298423767 5525324 0 -1
-0.13132937252521515 0.034335535019636154 -0.24960623681545258 5327945 0 -1
-0.1313207745552063 0.03414042294025421 -0.2496081441640854 5130823 0 -1
-0.13133084774017334 0.033757369965314865 -0.2496638298034668 5065287 0 -1
-0.13132229447364807 0.03356240317225456 -0.24966585636138916 5131336 0 -1
-0.13131383061408997 0.03336750343441963 -0.24966806173324585 5131337 0 -1
-0.13133203983306885 0.03317940607666969 -0.2497209906578064 4999751 0 -1
-0.13130681216716766 0.03259512409567833 -0.24972786009311676 4868164 0 -1
-0.13129869103431702 0.03240054473280907 -0.24973073601722717 4802116 0 -1
-0.13131628930568695 0.032212331891059875 -0.2497825026512146 4867909 0 -1
-0.13130801916122437 0.032017782330513 -0.24978508055210114 5262666 0 -1
-0.13131719827651978 0.03163504973053932 -0.2498391717672348 5196874 0 -1
-0.13130898773670197 0.03144064173102379 -0.2498418688774109 5131081 0 -1
-0.1313008815050125 0.031246311962604523 -0.2498447597026825 5394253 0 -1
-0.13129284977912903 0.031052058562636375 -0.24984781444072723 5525839 0 -1
-0.13130158185958862 0.03066949173808098 -0.24990107119083405 5591631 0 -1
-0.1312936246395111 0.030475374311208725 -0.24990426003932953 5328459 0 -1
-0.13128572702407837 0.030281322076916695 -0.24990755319595337 5262923 0 -1
-0.13130198419094086 0.030092863366007805 -0.2499568611383438 5657167 0 -1
-0.13128642737865448 0.02970501035451889 -0.2499639242887497 5920339 0 -1
-0.13127881288528442 0.02951119653880596 -0.2499677538871765 5854803 0 -1
-0.13127118349075317 0.029317433014512062 -0.24997156858444214 5657424 0 -1
-0.13128681480884552 0.02912888675928116 -0.25001972913742065 5525838 0 -1
-0.13127928972244263 0.02893521822988987 -0.250023752450943 5460045 0 -1
-0.13127964735031128 0.02835947275161743 -0.250079482793808 5591631 0 -1
-0.13127213716506958 0.02816598117351532 -0.2500835359096527 5394251 0 -1
-0.131264790892601 0.02797257900238037 -0.2500879466533661 5262409 0 -1
-0.13127225637435913 0.02759057655930519 -0.25013887882232666 5065287 0 -1
-0.13126498460769653 0.027397306635975838 -0.2501433789730072 5131080 0 -1
-0.13127213716506958 0.027015389874577522 -0.2501937747001648 5459788 0 -1
-0.13126501441001892 0.026822270825505257 -0.2501985728740692 5459788 0 -1
-0.13125085830688477 0.0264362134039402 -0.25020840764045715 5393995 0 -1
-0.13125771284103394 0.026054518297314644 -0.2502582371234894 5393995 0 -1
-0.1312507688999176 0.02586166001856327 -0.25026339292526245 5262408 0 -1
-0.1312573254108429 0.025480063632130623 -0.2503126859664917 5328202 0 -1
-0.13125047087669373 0.025287343189120293 -0.2503180205821991 5196616 0 -1
-0.13123711943626404 0.024902118369936943 -0.2503293752670288 5130822 0 -1
-0.13124994933605194 0.02471325173974037 -0.2503722608089447 5262408 0 -1
-0.13124315440654755 0.02452070824801922 -0.25037768483161926 5393481 0 -1
-0.13123676180839539 0.02432829514145851 -0.2503839135169983 5459530 0 -1
-0.13124258816242218 0.023947009816765785 -0.2504318952560425 4999237 0 -1
-0.13122966885566711 0.023562438786029816 -0.25044405460357666 5393995 0 -1
-0.13122354447841644 0.02337028831243515 -0.25045081973075867 5393995 0 -1
-0.13123543560504913 0.023181363940238953 -0.2504919171333313 5328459 0 -1
-0.13122907280921936 0.022989239543676376 -0.2504981756210327 5328459 0 -1
-0.13122285902500153 0.02279719151556492 -0.2505047619342804 5262666 0 -1
-0.13121673464775085 0.022605203092098236 -0.25051149725914 5262665 0 -1
-0.13122808933258057 0.0224162507802248 -0.25055164098739624 5196873 0 -1
-0.13122208416461945 0.02222435176372528 -0.2505585849285126 5591631 0 -1
-0.13121618330478668 0.022032521665096283 -0.250565767288208 6117718 0 -1
-0.13122719526290894 0.021843554452061653 -0.2506052255630493 6183768 0 -1
-0.1312151700258255 0.02146003767848015 -0.25061914324760437 6117718 0 -1
-0.13120925426483154 0.021268369629979134 -0.25062626600265503 5985874 0 -1
-0.13121397793293 0.02088780514895916 -0.25067219138145447 6117204 0 -1
-0.13120825588703156 0.020696278661489487 -0.25067970156669617 6380632 0 -1
-0.13121265172958374 0.020315833389759064 -0.25072503089904785 6709597 0 -1
-0.13120701909065247 0.020124439150094986 -0.2507327198982239 6775389 0 -1
-0.13120150566101074 0.01993311010301113 -0.250740647315979 6512475 0 -1
-0.13119614124298096 0.019741849973797798 -0.25074881315231323 6315353 0 -1
-0.13120025396347046 0.01936165802180767 -0.2507936358451843 6183767 0 -1
-0.1311948299407959 0.019170505926012993 -0.2508017122745514 5920596 0 -1
-0.13119858503341675 0.01879042573273182 -0.2508457899093628 5525838 0 -1
-0.13119341433048248 0.01859942078590393 -0.25085437297821045 5328459 0 -1
-0.13119705021381378 0.018219493329524994 -0.25089824199676514 5591373 0 -1
-0.1311917006969452 0.018028585240244865 -0.2509065270423889 5459531 0 -1
-0.13118675351142883 0.0178377702832222 -0.25091552734375 5327945 0 -1
-0.1311817616224289 0.017646996304392815 -0.2509244382381439 5262409 0 -1
-0.1311851441860199 0.017267342656850815 -0.2509678900241852 5196617 0 -1
-0.13118015229701996 0.017076680436730385 -0.2509768009185791 5131080 0 -1
-0.13117551803588867 0.016886111348867416 -0.25098639726638794 4999238 0 -1
-0.13118325173854828 0.01669715903699398 -0.251019686460495 4867908 0 -1
-0.13117855787277222 0.016506647691130638 -0.2510291635990143 4999494 0 -1
-0.1311812847852707 0.016127251088619232 -0.25107133388519287 4933444 0 -1
-0.13117651641368866 0.015936842188239098 -0.2510806918144226 4801858 0 -1
-0.13117195665836334 0.015746505931019783 -0.2510904371738434 4736065 0 -1
-0.1311699002981186 0.015177098102867603 -0.2511419653892517 4078393 0 -1
-0.1311655044555664 0.014986934140324593 -0.25115200877189636 4473151 0 -1
-0.1311572790145874 0.014606798999011517 -0.2511732578277588 4670272 0 -1
-0.1311635822057724 0.014417937956750393 -0.2512038052082062 4473150 0 -1
-0.1311652809381485 0.014039084315299988 -0.25124406814575195 4209978 0 -1
-0.13115713000297546 0.013659311458468437 -0.25126540660858154 4999237 0 -1
-0.13115324079990387 0.013469506055116653 -0.251276433467865 4801858 0 -1
-0.1311548501253128 0.013090956956148148 -0.25131651759147644 4736066 0 -1
-0.13115113973617554 0.012901279143989086 -0.25132790207862854 4736066 0 -1
-0.13114731013774872 0.012711631134152412 -0.25133904814720154 4736322 0 -1
-0.1311437338590622 0.012522045522928238 -0.25135067105293274 4604736 0 -1
-0.13114872574806213 0.012333307415246964 -0.25137871503829956 4276028 0 -1
-0.13114510476589203 0.012143786996603012 -0.251390278339386 4210235 0 -1
-0.13114158809185028 0.01195431500673294 -0.25140202045440674 4407357 0 -1
-0.13114622235298157 0.011765615083277225 -0.25142940878868103 4670272 0 -1
-0.13114258646965027 0.01157620083540678 -0.25144094228744507 4999237 0 -1
-0.13114003837108612 0.01100889965891838 -0.251491516828537 5065287 0 -1
-0.13113683462142944 0.01081966795027256 -0.2515038549900055 5197130 0 -1
-0.13113363087177277 0.010630477219820023 -0.2515162229537964 5394252 0 -1
-0.1311374008655548 0.01044187881052494 -0.25154194235801697 5525581 0 -1
-0.13113421201705933 0.01025275606662035 -0.25155431032180786 5393995 0 -1
-0.13112813234329224 0.009874648414552212 -0.2515796422958374 4933702 0 -1
-0.13113144040107727 0.009686119854450226 -0.25160449743270874 4999750 0 -1
-0.1311257928609848 0.008930922485888004 -0.2516676187515259 5525582 0 -1
-0.13112284243106842 0.008742103353142738 -0.2516804337501526 5657167 0 -1
-0.13111771643161774 0.008364629000425339 -0.2517075538635254 5920339 0 -1
-0.13111521303653717 0.0077990018762648106 -0.25175827741622925 6051924 0 -1
-0.13111726939678192 0.007610689383000135 -0.2517806589603424 5722960 0 -1
-0.1308894157409668 0.006657371297478676 -0.25143539905548096 5196873 0 -1
-0.130888432264328 0.006281491369009018 -0.2514704465866089 4933701 0 -1
-0.13088251650333405 0.005717706400901079 -0.25151440501213074 5394251 0 -1
-0.13088321685791016 0.0055299606174230576 -0.25153422355651855 5657424 0 -1
-0.13109669089317322 0.004599001724272966 -0.2520368993282318 5262410 0 -1
-0.13109534978866577 0.0044110482558608055 -0.25205278396606445 5131080 0 -1
-0.1310952603816986 0.004223167430609465 -0.2520711123943329 5130824 0 -1
-0.13087007403373718 0.0034659835509955883 -0.2517118453979492 4736065 0 -1
-0.13108594715595245 0.002720997203141451 -0.2522009611129761 4472893 0 -1
-0.13108256459236145 0.002158216666430235 -0.2522498369216919 5065030 0 -1
-0.13108159601688385 0.0019706892780959606 -0.25226640701293945 5065029 0 -1
-0.1310800462961197 0.0015957350842654705 -0.2523003816604614 5065030 0 -1
-0.13107429444789886 0.0006588801625184715 -0.2523815631866455 4933701 0 -1
-0.13107386231422424 0.00047160775284282863 -0.252399206161499 5131080 0 -1
-0.13107070326805115 0.0000971507397480309 -0.2524300217628479 5591374 0 -1
-0.13107046484947205 -0.00009002901788335294 -0.25244802236557007 5788753 0 -1
-0.1310672163963318 -0.0004642909625545144 -0.2524786591529846 5657166 0 -1
-0.13106706738471985 -0.0006513794651255012 -0.2524968087673187 5788747 0 -1
-0.13106372952461243 -0.0015863568987697363 -0.2525825798511505 11310129 0 -1
-0.1310599446296692 -0.0017732189735397696 -0.25259366631507874 8483906 0 -1
-0.13084007799625397 -0.002143348101526499 -0.2522067129611969 6117456 0 -1
-0.1308361440896988 -0.002516262698918581 -0.25223591923713684 8220736 0 -1
-0.13083668053150177 -0.002702721394598484 -0.2522553503513336 9995317 0 -1
-0.13105478882789612 -0.0036405962891876698 -0.252767950296402 6314309 0 -1
-0.1310514211654663 -0.004200171213597059 -0.25281670689582825 5394252 0 -1
-0.13082760572433472 -0.004751457367092371 -0.25244003534317017 5065031 0 -1
-0.1308192014694214 -0.005681297741830349 -0.25251561403274536 4801859 0 -1
-0.13081535696983337 -0.006238865666091442 -0.2525632679462433 5262151 0 -1
-0.13082000613212585 -0.006796591449528933 -0.25262731313705444 4341821 0 -1
-0.1308131068944931 -0.007910430431365967 -0.2527239918708801 4473150 0 -1
-0.13080725073814392 -0.00828123651444912 -0.25274938344955444 4670529 0 -1
-0.13080936670303345 -0.008466911502182484 -0.2527717649936676 4604736 0 -1
-0.13080348074436188 -0.008837513625621796 -0.25279703736305237 4736066 0 -1
-0.13080573081970215 -0.009023120626807213 -0.2528197467327118 4802115 0 -1
-0.13080433011054993 -0.009764552116394043 -0.2528902590274811 5393995 0 -1
-0.13080693781375885 -0.00995006412267685 -0.25291359424591064 5591374 0 -1
-0.13101710379123688 -0.010893710888922215 -0.25341159105300903 5065287 0 -1
-0.13101987540721893 -0.01107939425855875 -0.25343528389930725 5065287 0 -1
-0.13100934028625488 -0.012005281634628773 -0.2535064220428467 5525838 0 -1
-0.1310124397277832 -0.012190843932330608 -0.25353074073791504 5591631 0 -1
-0.13101914525032043 -0.012561960145831108 -0.25358033180236816 5788753 0 -1
-0.1310155987739563 -0.013117140159010887 -0.25362837314605713 5328459 0 -1
-0.13100837171077728 -0.01422665361315012 -0.25372403860092163 5196873 0 -1
-0.13100071251392365 -0.014595660381019115 -0.25374576449394226 4933444 0 -1
-0.13100485503673553 -0.014781005680561066 -0.2537720501422882 4867651 0 -1
-0.13099701702594757 -0.015149787068367004 -0.2537933886051178 5262922 0 -1
-0.13100099563598633 -0.01533504482358694 -0.25381937623023987 5065287 0 -1
-0.13100609183311462 -0.01625925675034523 -0.2539204955101013 5065287 0 -1
-0.13100264966487885 -0.016812659800052643 -0.25396856665611267 4604736 0 -1
-0.13099423050880432 -0.017180636525154114 -0.25398868322372437 4473151 0 -1
-0.13099907338619232 -0.017365766689181328 -0.25401630997657776 4538944 0 -1
-0.13099180161952972 -0.01847115159034729 -0.25411155819892883 4144186 0 -1
-0.13098303973674774 -0.01883845403790474 -0.2541309893131256 4407357 0 -1
-0.13075999915599823 -0.019358044490218163 -0.25375276803970337 4275771 0 -1
-0.13098880648612976 -0.021048352122306824 -0.25436049699783325 5393994 0 -1
-0.13098524510860443 -0.02159942127764225 -0.2544080913066864 4999494 0 -1
-0.13097214698791504 -0.022516032680869102 -0.254473477602005 5394252 0 -1
-0.13098816573619843 -0.02362055517733097 -0.2546135485172272 5591374 0 -1
-0.13097527623176575 -0.02581861987709999 -0.2548061013221741 5591374 0 -1
-0.1309610903263092 -0.026731399819254875 -0.25486910343170166 4867908 0 -1
-0.1311642974615097 0.04441443085670471 -0.24876049160957336 4867652 0 -1
-0.1311895102262497 0.04422849789261818 -0.2488263100385666 4933702 0 -1
-0.13117897510528564 0.044030532240867615 -0.24882441759109497 4999494 0 -1
-0.13095466792583466 0.043761178851127625 -0.2484169602394104 4999494 0 -1
-0.1309688240289688 0.043377835303545 -0.24847984313964844 5328201 0 -1
-0.13095831871032715 0.043180376291275024 -0.24847795069217682 5328202 0 -1
-0.1309480518102646 0.04298306629061699 -0.2484765201807022 5328201 0 -1
-0.13093775510787964 0.04278578236699104 -0.24847497045993805 5328201 0 -1
-0.13095150887966156 0.042402543127536774 -0.24853716790676117 5262409 0 -1
-0.13115550577640533 0.04227447137236595 -0.24894243478775024 5131080 0 -1
-0.13114525377750397 0.042077090591192245 -0.24894104897975922 5262666 0 -1
-0.1309547871351242 0.04182220622897148 -0.24859756231307983 5460301 0 -1
-0.13115881383419037 0.041693318635225296 -0.24900296330451965 5459788 0 -1
-0.13093440234661102 0.041428301483392715 -0.2485949844121933 5262665 0 -1
-0.13092437386512756 0.041231486946344376 -0.2485940009355545 5262409 0 -1
-0.1311519891023636 0.04091531038284302 -0.2490624189376831 5328459 0 -1
-0.13114215433597565 0.04071836546063423 -0.24906185269355774 5459788 0 -1
-0.13113228976726532 0.040521468967199326 -0.2490612268447876 5393995 0 -1
-0.13112245500087738 0.04032464325428009 -0.24906064569950104 5328202 0 -1
-0.1311352401971817 0.039941057562828064 -0.24912118911743164 4933701 0 -1
-0.13112546503543854 0.03974436968564987 -0.24912074208259583 4933701 0 -1
-0.13111591339111328 0.039547815918922424 -0.24912074208259583 4999238 0 -1
-0.13113804161548615 0.03936082497239113 -0.24918092787265778 5065030 0 -1
-0.13112831115722656 0.03916428983211517 -0.24918058514595032 5130823 0 -1
-0.13110919296741486 0.038771480321884155 -0.24918049573898315 4999494 0 -1
-0.13113084435462952 0.038584351539611816 -0.24923983216285706 4867908 0 -1
-0.13112132251262665 0.038388051092624664 -0.24923986196517944 4670785 0 -1
-0.13111184537410736 0.03819182515144348 -0.24924001097679138 4736322 0 -1
-0.13112354278564453 0.037808388471603394 -0.2492985874414444 4867394 0 -1
-0.13111424446105957 0.03761234134435654 -0.249299094080925 4867394 0 -1
-0.13109569251537323 0.03722043335437775 -0.24930016696453094 4801858 0 -1
-0.13110706210136414 0.03683716431260109 -0.2493581622838974 4933444 0 -1
-0.13088220357894897 0.03658110648393631 -0.24894864857196808 4999237 0 -1
-0.13108882308006287 0.036445703357458115 -0.2493598461151123 4999494 0 -1
-0.13110901415348053 0.036258164793252945 -0.24941645562648773 5130823 0 -1
-0.1310909241437912 0.03586700186133385 -0.2494184523820877 5130822 0 -1
-0.13108189404010773 0.03567150980234146 -0.2494194507598877 5065029 0 -1
-0.1311015784740448 0.03548384830355644 -0.2494751513004303 5064773 0 -1
-0.1310926377773285 0.03528844565153122 -0.249476358294487 5065030 0 -1
-0.131083682179451 0.035093098878860474 -0.24947752058506012 5393995 0 -1
-0.1310853660106659 0.0345149040222168 -0.24953539669513702 5525580 0 -1
-0.1310766041278839 0.034319788217544556 -0.24953694641590118 5393994 0 -1
-0.13106797635555267 0.034124769270420074 -0.24953877925872803 5262409 0 -1
-0.13107800483703613 0.03374190628528595 -0.2495943307876587 5196873 0 -1
-0.13106946647167206 0.03354702889919281 -0.24959632754325867 5262665 0 -1
-0.13106095790863037 0.033352211117744446 -0.24959833920001984 5262665 0 -1
-0.131062313914299 0.03277481719851494 -0.24965570867061615 4999494 0 -1
-0.13105395436286926 0.032580211758613586 -0.2496580183506012 4933701 0 -1
-0.1310456097126007 0.032385677099227905 -0.2496604323387146 4933702 0 -1
-0.13106323778629303 0.03219756856560707 -0.2497122585773468 4999495 0 -1
-0.1310640573501587 0.031620558351278305 -0.24976865947246552 5328460 0 -1
-0.1310558170080185 0.031426236033439636 -0.24977122247219086 5262667 0 -1
-0.1310478001832962 0.031232018023729324 -0.24977421760559082 5394253 0 -1
-0.1308228224515915 0.030986471101641655 -0.24936367571353912 5460045 0 -1
-0.13104845583438873 0.030655475333333015 -0.24983032047748566 5394509 0 -1
-0.131040558218956 0.030461467802524567 -0.24983356893062592 5328716 0 -1
-0.13103272020816803 0.030267521739006042 -0.24983692169189453 5460045 0 -1
-0.13104894757270813 0.030079158022999763 -0.249886155128479 5722960 0 -1
-0.131033256649971 0.029691463336348534 -0.24989287555217743 5920596 0 -1
-0.13102546334266663 0.029497705399990082 -0.24989630281925201 5920596 0 -1
-0.13101796805858612 0.02930407226085663 -0.24990034103393555 5854803 0 -1
-0.13081640005111694 0.02906735986471176 -0.24953413009643555 5723216 0 -1
-0.13080881536006927 0.02887408807873726 -0.24953794479370117 5525838 0 -1
-0.1310110241174698 0.02853505313396454 -0.24996033310890198 5460045 0 -1
-0.13102616369724274 0.028346538543701172 -0.2500075697898865 5460045 0 -1
-0.13101881742477417 0.028153175488114357 -0.2500118613243103 5525581 0 -1
-0.13101142644882202 0.027959857136011124 -0.25001609325408936 5393994 0 -1
-0.13101887702941895 0.02757805399596691 -0.25006699562072754 4999494 0 -1
-0.1307940036058426 0.02733939327299595 -0.249656081199646 4999494 0 -1
-0.1310044229030609 0.027191774919629097 -0.2500760853290558 5065287 0 -1
-0.13080108165740967 0.026958292350172997 -0.2497062385082245 5196616 0 -1
-0.1310114860534668 0.02681010402739048 -0.2501262128353119 5196873 0 -1
-0.1307796686887741 0.026380330324172974 -0.24972029030323029 5262409 0 -1
-0.1310041844844818 0.026042740792036057 -0.2501857280731201 5328202 0 -1
-0.13099715113639832 0.0258499626070261 -0.2501906454563141 5262408 0 -1
-0.131003737449646 0.025468571111559868 -0.2502399682998657 5196616 0 -1
-0.1309901624917984 0.025083396583795547 -0.25025075674057007 5130823 0 -1
-0.13076555728912354 0.024849489331245422 -0.24983997642993927 5196615 0 -1
-0.1309896856546402 0.024509727954864502 -0.2503049671649933 5262152 0 -1
-0.13098309934139252 0.02431737259030342 -0.2503107488155365 5327944 0 -1
-0.13098901510238647 0.02393629588186741 -0.25035879015922546 4999236 0 -1
-0.13097603619098663 0.023551911115646362 -0.2503707706928253 5328202 0 -1
-0.1307516098022461 0.023320920765399933 -0.24996012449264526 5393995 0 -1
-0.1309816688299179 0.023171013221144676 -0.2504183053970337 5328202 0 -1
-0.13075710833072662 0.022940708324313164 -0.25000736117362976 5328202 0 -1
-0.13075079023838043 0.022749051451683044 -0.2500136196613312 5262666 0 -1
-0.13096308708190918 0.02259516343474388 -0.2504379451274872 5459788 0 -1
-0.13097447156906128 0.0224063191562891 -0.2504781186580658 5591374 0 -1
-0.13096842169761658 0.022214511409401894 -0.25048497319221497 5722960 0 -1
-0.1309623420238495 0.02202274464070797 -0.2504917085170746 5854546 0 -1
-0.13097333908081055 0.0218338780105114 -0.2505311369895935 5986132 0 -1
-0.13096128404140472 0.021450554952025414 -0.25054487586021423 5986132 0 -1
-0.1309555470943451 0.021259013563394547 -0.25055235624313354 5920082 0 -1
-0.13096022605895996 0.020878640934824944 -0.25059810280799866 6117460 0 -1
-0.13095445930957794 0.02068720944225788 -0.2506054937839508 6314839 0 -1
-0.13095888495445251 0.020306963473558426 -0.2506507635116577 6446682 0 -1
-0.13095320761203766 0.02011565864086151 -0.2506583333015442 6446682 0 -1
-0.13094212114810944 0.019733238965272903 -0.25067394971847534 6380633 0 -1
-0.1309463083744049 0.019353259354829788 -0.2507188022136688 6315096 0 -1
-0.13094092905521393 0.019162211567163467 -0.25072693824768066 6051924 0 -1
-0.13094468414783478 0.01878233253955841 -0.2507709860801697 5591374 0 -1
-0.1309429407119751 0.018211673945188522 -0.25082293152809143 5722959 0 -1
-0.13093774020671844 0.018020883202552795 -0.2508314251899719 5459788 0 -1
-0.1309327930212021 0.01783016510307789 -0.25084033608436584 5262152 0 -1
-0.13092780113220215 0.017639493569731712 -0.25084924697875977 5196616 0 -1
-0.1309310495853424 0.017260020598769188 -0.25089231133461 5131080 0 -1
-0.13092617690563202 0.01706947572529316 -0.25090140104293823 5130824 0 -1
-0.13092140853405 0.016878986731171608 -0.2509107291698456 5065287 0 -1
-0.1309291571378708 0.01669013872742653 -0.25094401836395264 4999494 0 -1
-0.13092434406280518 0.01649971306324005 -0.25095322728157043 5065286 0 -1
-0.13092704117298126 0.016120513901114464 -0.25099530816078186 5065031 0 -1
-0.13092242181301117 0.01593022607266903 -0.2510048747062683 5065030 0 -1
-0.13091786205768585 0.015739990398287773 -0.2510145604610443 4867652 0 -1
-0.1309157758951187 0.015170881524682045 -0.2510659396648407 4275771 0 -1
-0.13091154396533966 0.014980834908783436 -0.25107625126838684 4538943 0 -1
-0.13090300559997559 0.014600864611566067 -0.2510967552661896 4604479 0 -1
-0.13090930879116058 0.014412104152143002 -0.25112730264663696 4473150 0 -1
-0.13090524077415466 0.01422223262488842 -0.25113797187805176 4407100 0 -1
-0.13090115785598755 0.014032397419214249 -0.2511485517024994 4473150 0 -1
-0.13090300559997559 0.013653899542987347 -0.2511889934539795 5196615 0 -1
-0.13089919090270996 0.013464203104376793 -0.2512001395225525 4867908 0 -1
-0.1309007853269577 0.013085855171084404 -0.2512401044368744 4801858 0 -1
-0.13089680671691895 0.012896250002086163 -0.25125089287757874 4801859 0 -1
-0.13088946044445038 0.012517225928604603 -0.2512737214565277 4670529 0 -1
-0.13089443743228912 0.012328588403761387 -0.25130173563957214 4538943 0 -1
-0.1308872103691101 0.011949790641665459 -0.25132477283477783 4407357 0 -1
-0.130891814827919 0.011761190369725227 -0.25135207176208496 4538943 0 -1
-0.13088583946228027 0.011004900559782982 -0.25141441822052 4999494 0 -1
-0.13088248670101166 0.010815759189426899 -0.2514263987541199 5131080 0 -1
-0.1308792531490326 0.010626666247844696 -0.2514386475086212 5328459 0 -1
-0.13088303804397583 0.010438173078000546 -0.2514643967151642 5460045 0 -1
-0.13087992370128632 0.010249157436192036 -0.25147688388824463 5394252 0 -1
-0.13087373971939087 0.009871247224509716 -0.2515019178390503 5065287 0 -1
-0.1308712661266327 0.008928021416068077 -0.25158944725990295 5460045 0 -1
-0.13086849451065063 0.008739318698644638 -0.2516025900840759 5591631 0 -1
-0.1308683454990387 0.008362367749214172 -0.2516392171382904 5920596 0 -1
-0.13086067140102386 0.007796717341989279 -0.25167977809906006 5920596 0 -1
-0.13086268305778503 0.007608506362885237 -0.25170210003852844 5657424 0 -1
-0.13063736259937286 0.006843673996627331 -0.25134238600730896 5196873 0 -1
-0.13063520193099976 0.006655703764408827 -0.25135666131973267 5328459 0 -1
-0.13063418865203857 0.006280028726905584 -0.25139155983924866 5065287 0 -1
-0.13085204362869263 0.006102419923990965 -0.25182920694351196 5130823 0 -1
-0.13062827289104462 0.005716552026569843 -0.25143539905548096 5262665 0 -1
-0.13084900379180908 0.005538222845643759 -0.2518787086009979 5328459 0 -1
-0.13084398210048676 0.004786372650414705 -0.25194281339645386 5393995 0 -1
-0.1308424025774002 0.004598480649292469 -0.2519581913948059 5262410 0 -1
-0.13062068819999695 0.004215743392705917 -0.2515680491924286 4999494 0 -1
-0.13083916902542114 0.004035053309053183 -0.2520073354244232 4867908 0 -1
-0.13061653077602386 0.0036534268874675035 -0.2516152858734131 4735808 0 -1
-0.13061127066612244 0.002716925460845232 -0.2516971528530121 4538686 0 -1
-0.13061022758483887 0.0025297212414443493 -0.2517135739326477 4407100 0 -1
-0.13082940876483917 0.002346498193219304 -0.2521544098854065 4538686 0 -1
-0.13060806691646576 0.0021554057020694017 -0.25174617767333984 4604480 0 -1
-0.13082703948020935 0.0019716122187674046 -0.25218665599823 4736066 0 -1
-0.13060550391674042 0.001594180823303759 -0.2517964243888855 4933445 0 -1
-0.13082373142242432 0.0014095287770032883 -0.2522355914115906 4999237 0 -1
-0.13081972301006317 0.0006605322123505175 -0.25230148434638977 5131080 0 -1
-0.13081927597522736 0.0004733640525955707 -0.2523190677165985 5196616 0 -1
-0.1305960863828659 0.00009894910908769816 -0.25192537903785706 5525581 0 -1
-0.13081595301628113 -0.00008795953181106597 -0.25236788392066956 5657423 0 -1
-0.13059258460998535 -0.0004612352349795401 -0.2519737184047699 5788495 0 -1
-0.13081248104572296 -0.000648996327072382 -0.2524164021015167 6051662 0 -1
-0.130589097738266 -0.0015807866584509611 -0.2520771920681 11309872 0 -1
-0.13080541789531708 -0.0017702088225632906 -0.25251320004463196 8483649 0 -1
-0.1305856704711914 -0.0021401287522166967 -0.25212568044662476 6051920 0 -1
-0.1305818408727646 -0.002512835431843996 -0.25215500593185425 8023362 0 -1
-0.1305822879076004 -0.0026991870254278183 -0.2521742284297943 9732406 0 -1
-0.13080015778541565 -0.003636535257101059 -0.25268688797950745 6248773 0 -1
-0.13079605996608734 -0.004009349271655083 -0.25271570682525635 5196873 0 -1
-0.13057675957679749 -0.004188735503703356 -0.2523103356361389 5328202 0 -1
-0.1305723637342453 -0.004560715984553099 -0.2523384988307953 5262666 0 -1
-0.13057340681552887 -0.004746772348880768 -0.2523588240146637 4999494 0 -1
-0.13056498765945435 -0.005676086526364088 -0.25243422389030457 4933445 0 -1
-0.13056620955467224 -0.005861980840563774 -0.2524549067020416 4933701 0 -1
-0.13056114315986633 -0.006233337800949812 -0.25248172879219055 4933700 0 -1
-0.13055731356143951 -0.00679030641913414 -0.2525292634963989 4341564 0 -1
-0.13055872917175293 -0.007903942838311195 -0.25264179706573486 4538943 0 -1
-0.13055315613746643 -0.008274553343653679 -0.2526676058769226 4670272 0 -1
-0.1305551677942276 -0.00846011657267809 -0.25268974900245667 4736066 0 -1
-0.13054931163787842 -0.008830511011183262 -0.25271502137184143 4604736 0 -1
-0.13055136799812317 -0.009015996009111404 -0.25273728370666504 4801859 0 -1
-0.13055017590522766 -0.009757019579410553 -0.2528080642223358 5656910 0 -1
-0.13055267930030823 -0.009942417964339256 -0.2528311610221863 5722704 0 -1
-0.13054651021957397 -0.010312270373106003 -0.25285574793815613 5196873 0 -1
-0.13054925203323364 -0.010497610084712505 -0.2528793215751648 5196873 0 -1
-0.13054277002811432 -0.010867235250771046 -0.2529032826423645 5196873 0 -1
-0.1305457204580307 -0.011052517220377922 -0.2529272437095642 5131080 0 -1
-0.130535289645195 -0.011976327747106552 -0.2529982626438141 5657167 0 -1
-0.13053838908672333 -0.012161473743617535 -0.25302252173423767 5657424 0 -1
-0.13053451478481293 -0.014192716218531132 -0.2532154321670532 5065287 0 -1
-0.1307579129934311 -0.01440184935927391 -0.25366702675819397 4867909 0 -1
-0.13074645400047302 -0.014585385099053383 -0.253663033246994 4999238 0 -1
-0.13053087890148163 -0.014745804481208324 -0.2532629668712616 5065287 0 -1
-0.13053248822689056 -0.01622077077627182 -0.25341159105300903 5065287 0 -1
-0.1305290162563324 -0.0167729202657938 -0.2534593939781189 4604736 0 -1
-0.130520761013031 -0.017140090465545654 -0.2534797489643097 4407358 0 -1
-0.13052551448345184 -0.017324792221188545 -0.2535071074962616 4407358 0 -1
-0.1305135041475296 -0.018243107944726944 -0.25357452034950256 4209979 0 -1
-0.13051852583885193 -0.018427720293402672 -0.2536024749279022 4144442 0 -1
-0.13050982356071472 -0.01879419945180416 -0.25362181663513184 4407357 0 -1
-0.13051506876945496 -0.018978776410222054 -0.25365012884140015 4407101 0 -1
-0.13050608336925507 -0.019345007836818695 -0.25366896390914917 4407358 0 -1
-0.13051915168762207 -0.020449019968509674 -0.2538031339645386 4867908 0 -1
-0.13073128461837769 -0.021585149690508842 -0.2543244957923889 5065287 0 -1
-0.13071824610233307 -0.02250123769044876 -0.2543897330760956 5525838 0 -1
-0.13072454929351807 -0.02268589474260807 -0.25442013144493103 5525838 0 -1
-0.13049593567848206 -0.02301265113055706 -0.2540113627910614 5460045 0 -1
-0.13073423504829407 -0.023605119436979294 -0.25452956557273865 5722960 0 -1
-0.13072149455547333 -0.025801926851272583 -0.25472187995910645 5657167 0 -1
-0.1307074874639511 -0.026714207604527473 -0.2547850012779236 5065030 0 -1
-0.13069914281368256 0.04432171955704689 -0.24828951060771942 4933445 0 -1
-0.13071371614933014 0.04393861070275307 -0.24835313856601715 4736323 0 -1
-0.13070307672023773 0.04374106228351593 -0.24835087358951569 4670529 0 -1
-0.13071715831756592 0.043357886373996735 -0.2484135925769806 5327945 0 -1
-0.1307068169116974 0.0431605763733387 -0.24841199815273285 5327945 0 -1
-0.1306963562965393 0.04296327382326126 -0.24841009080410004 5065030 0 -1
-0.13068601489067078 0.042766083031892776 -0.24840843677520752 5065030 0 -1
-0.13069990277290344 0.04238307476043701 -0.24847084283828735 5196616 0 -1
-0.1306896209716797 0.04218602925539017 -0.24846932291984558 5196873 0 -1
-0.1306794434785843 0.04198906943202019 -0.24846798181533813 5262666 0 -1
-0.13070309162139893 0.04180298373103142 -0.24853092432022095 5394252 0 -1
-0.1306927651166916 0.04160604998469353 -0.2485293298959732 5393995 0 -1
-0.13068264722824097 0.041409242898225784 -0.2485281229019165 5327945 0 -1
-0.13067254424095154 0.04121249169111252 -0.2485269457101822 5328202 0 -1
-0.13068564236164093 0.04082958400249481 -0.2485879510641098 5393995 0 -1
-0.1306755393743515 0.04063296318054199 -0.2485867440700531 5262409 0 -1
-0.13066567480564117 0.04043647274374962 -0.248586043715477 5393995 0 -1
-0.13065586984157562 0.04024006426334381 -0.24858541786670685 5525581 0 -1
-0.130668506026268 0.03985725715756416 -0.2486455887556076 4999493 0 -1
-0.13086363673210144 0.03952961787581444 -0.24905309081077576 4736322 0 -1
-0.13088572025299072 0.0393427237868309 -0.24911324679851532 4867908 0 -1
-0.1308760792016983 0.0391462966799736 -0.24911299347877502 4999494 0 -1
-0.13086646795272827 0.03894994035363197 -0.2491127997636795 5065287 0 -1
-0.13085691630840302 0.038753658533096313 -0.24911272525787354 5131080 0 -1
-0.1308785229921341 0.03856661915779114 -0.24917198717594147 4933701 0 -1
-0.13086898624897003 0.03837040439248085 -0.2491719275712967 4736322 0 -1
-0.13085949420928955 0.038174260407686234 -0.24917195737361908 4736322 0 -1
-0.1308712363243103 0.03779103606939316 -0.24923060834407806 4736065 0 -1
-0.1308617889881134 0.03759503737092018 -0.2492307424545288 4670015 0 -1
-0.13085240125656128 0.037399113178253174 -0.2492309808731079 4538686 0 -1
-0.13084331154823303 0.03720333054661751 -0.24923183023929596 4407100 0 -1
-0.1308545470237732 0.03682021424174309 -0.24928951263427734 4867651 0 -1
-0.130845308303833 0.036624517291784286 -0.2492900788784027 4933701 0 -1
-0.13083627820014954 0.03642892837524414 -0.24929100275039673 5065287 0 -1
-0.13085640966892242 0.036241479218006134 -0.24934756755828857 5065287 0 -1
-0.1308382898569107 0.035850491374731064 -0.24934932589530945 5064773 0 -1
-0.13082925975322723 0.03565508872270584 -0.24935030937194824 4998980 0 -1
-0.13084891438484192 0.035467516630887985 -0.24940592050552368 4933444 0 -1
-0.13083995878696442 0.035272207111120224 -0.2494070678949356 4933701 0 -1
-0.13083118200302124 0.03507699444890022 -0.24940848350524902 5328202 0 -1
-0.13081353902816772 0.034686725586652756 -0.24941124022006989 5656909 0 -1
-0.13080506026744843 0.03449175879359245 -0.24941325187683105 5591116 0 -1
-0.13082396984100342 0.03430403396487236 -0.24946747720241547 5525324 0 -1
-0.13081516325473785 0.03410905972123146 -0.24946892261505127 5459788 0 -1
-0.13082532584667206 0.03372642397880554 -0.24952469766139984 5393995 0 -1
-0.13081656396389008 0.03353158384561539 -0.24952618777751923 5328202 0 -1
-0.13080821931362152 0.03333690017461777 -0.24952848255634308 5328202 0 -1
-0.13079974055290222 0.03314224258065224 -0.24953052401542664 5262666 0 -1
-0.13080936670303345 0.03275974094867706 -0.2495853304862976 5065287 0 -1
-0.1308009773492813 0.03256522864103317 -0.2495875507593155 4999494 0 -1
-0.1307927966117859 0.03237082064151764 -0.24959014356136322 5065288 0 -1
-0.13081037998199463 0.032182808965444565 -0.24964195489883423 5196873 0 -1
-0.1308111548423767 0.03160607069730759 -0.24969814717769623 5460045 0 -1
-0.13080286979675293 0.03141183406114578 -0.24970057606697083 5460045 0 -1
-0.1307947337627411 0.031217684969305992 -0.2497032731771469 5394252 0 -1
-0.13078667223453522 0.031023608520627022 -0.24970614910125732 5328459 0 -1
-0.13079534471035004 0.030641421675682068 -0.24975919723510742 5262666 0 -1
-0.13078750669956207 0.030447524040937424 -0.24976250529289246 5394252 0 -1
-0.1307796686887741 0.03025367110967636 -0.24976575374603271 5591375 0 -1
-0.1307958960533142 0.03006540797650814 -0.24981503188610077 5723217 0 -1
-0.1307801604270935 0.029677892103791237 -0.2498215287923813 5986388 0 -1
-0.13056343793869019 0.02905403822660446 -0.2494622766971588 5920595 0 -1
-0.13055594265460968 0.02886088192462921 -0.2494661659002304 5657423 0 -1
-0.13054075837135315 0.02847468852996826 -0.2494736760854721 5262667 0 -1
-0.13055585324764252 0.028286581858992577 -0.24952077865600586 5328459 0 -1
-0.13054847717285156 0.028093630447983742 -0.24952498078346252 5591374 0 -1
-0.13054104149341583 0.027900710701942444 -0.24952900409698486 5460044 0 -1
-0.1305483728647232 0.02751971408724785 -0.2495795488357544 4933701 0 -1
-0.13054098188877106 0.027326928451657295 -0.2495836764574051 4867908 0 -1
-0.13053376972675323 0.027134235948324203 -0.24958817660808563 4867908 0 -1
-0.13052669167518616 0.026941616088151932 -0.24959291517734528 4868165 0 -1
-0.13054081797599792 0.026753395795822144 -0.24963821470737457 4933957 0 -1
-0.13053369522094727 0.026560841128230095 -0.24964286386966705 4999494 0 -1
-0.13052651286125183 0.02636832371354103 -0.24964740872383118 5130823 0 -1
-0.13053330779075623 0.0259876549243927 -0.2496969997882843 5262409 0 -1
-0.13052630424499512 0.025795292109251022 -0.2497018724679947 5196872 0 -1
-0.13053274154663086 0.02541470341384411 -0.2497507780790329 5065287 0 -1
-0.13051900267601013 0.025030329823493958 -0.24976110458374023 5196616 0 -1
-0.1305122971534729 0.024838244542479515 -0.24976655840873718 5196616 0 -1
-0.1304982304573059 0.02331044338643551 -0.24988612532615662 5328202 0 -1
-0.13051007688045502 0.023122034966945648 -0.2499271184206009 5328202 0 -1
-0.13050372898578644 0.022930428385734558 -0.24993328750133514 5328202 0 -1
-0.1307208091020584 0.022396346554160118 -0.25040411949157715 6051667 0 -1
-0.13071472942829132 0.022204631939530373 -0.25041085481643677 5854545 0 -1
-0.13070864975452423 0.022012965753674507 -0.2504175305366516 5657166 0 -1
-0.13070765137672424 0.021441079676151276 -0.25047072768211365 5920082 0 -1
-0.13070178031921387 0.021249614655971527 -0.2504778504371643 5788753 0 -1
-0.13070647418498993 0.02086944319307804 -0.25052356719970703 6183253 0 -1
-0.13070067763328552 0.02067810855805874 -0.250530868768692 6249046 0 -1
-0.1307050585746765 0.020298052579164505 -0.250575989484787 6183768 0 -1
-0.13069936633110046 0.020106850191950798 -0.2505834698677063 6117975 0 -1
-0.13069382309913635 0.019915714859962463 -0.2505912184715271 6314840 0 -1
-0.1306883543729782 0.019724637269973755 -0.25059911608695984 6511705 0 -1
-0.1306925266981125 0.01934485323727131 -0.25064387917518616 6446425 0 -1
-0.13068701326847076 0.019153885543346405 -0.25065168738365173 6183253 0 -1
-0.1306908279657364 0.01877421699464321 -0.2506957948207855 5722703 0 -1
-0.13068917393684387 0.018203869462013245 -0.25074779987335205 5854546 0 -1
-0.13068395853042603 0.018013175576925278 -0.2507562041282654 5525581 0 -1
-0.1306789517402649 0.01782255433499813 -0.25076499581336975 5196616 0 -1
-0.13067395985126495 0.017631977796554565 -0.2507737874984741 5130823 0 -1
-0.13067710399627686 0.017252694815397263 -0.2508166432380676 5065287 0 -1
-0.13067227602005005 0.017062252387404442 -0.25082576274871826 5065287 0 -1
-0.13066750764846802 0.016871865838766098 -0.25083503127098083 5065287 0 -1
-0.13067525625228882 0.016683120280504227 -0.2508683204650879 5131080 0 -1
-0.130670428276062 0.01649279147386551 -0.2508774399757385 5065287 0 -1
-0.13066105544567108 0.016112307086586952 -0.25089627504348755 5262409 0 -1
-0.13066831231117249 0.015923582017421722 -0.2509285509586334 5262410 0 -1
-0.1306639015674591 0.015733463689684868 -0.2509385049343109 5065030 0 -1
-0.13066180050373077 0.015164656564593315 -0.25098973512649536 4472893 0 -1
-0.1306573748588562 0.014974688179790974 -0.2509995996952057 4670272 0 -1
-0.13064901530742645 0.014594937674701214 -0.2510203719139099 4538943 0 -1
-0.13065527379512787 0.014406278729438782 -0.25105082988739014 4407357 0 -1
-0.13064709305763245 0.014026767574250698 -0.25107190012931824 4801858 0 -1
-0.1306530386209488 0.013838140293955803 -0.2511017620563507 5262152 0 -1
-0.1306489259004593 0.013648472726345062 -0.25111228227615356 5393738 0 -1
-0.13064654171466827 0.013080715201795101 -0.25116294622421265 4867651 0 -1
-0.13064271211624146 0.012891227379441261 -0.2511740028858185 4867651 0 -1
-0.1306353360414505 0.01251240260899067 -0.25119665265083313 4670529 0 -1
-0.13064031302928925 0.012323867529630661 -0.2512246370315552 4736322 0 -1
-0.13063664734363556 0.012134545482695103 -0.2512359917163849 4670529 0 -1
-0.13063304126262665 0.011945268139243126 -0.25124746561050415 4407358 0 -1
-0.13063764572143555 0.011756770312786102 -0.2512747645378113 4407358 0 -1
-0.13063165545463562 0.011000885628163815 -0.2513369023799896 4933445 0 -1
-0.13062827289104462 0.01081184484064579 -0.2513488233089447 5065287 0 -1
-0.13062502443790436 0.01062285341322422 -0.2513609826564789 5196874 0 -1
-0.1306288093328476 0.010434461757540703 -0.2513866722583771 5394253 0 -1
-0.13062569499015808 0.010245546698570251 -0.25139909982681274 5394252 0 -1
-0.13061946630477905 0.0098678357899189 -0.2514239549636841 5196873 0 -1
-0.13061673939228058 0.009679067879915237 -0.25143715739250183 5262409 0 -1
-0.1306169629096985 0.008925124071538448 -0.25151121616363525 5328716 0 -1
-0.13061420619487762 0.008736523799598217 -0.2515243589878082 5591887 0 -1
-0.13061413168907166 0.00835978239774704 -0.2515610158443451 5986389 0 -1
-0.13060641288757324 0.007794438395649195 -0.2516014277935028 5854803 0 -1
-0.13038884103298187 0.007593541871756315 -0.25120067596435547 5591632 0 -1
-0.13038337230682373 0.006841903552412987 -0.25126364827156067 5262666 0 -1
-0.13038110733032227 0.006654031109064817 -0.2512776851654053 5525581 0 -1
-0.13038010895252228 0.006278562359511852 -0.2513125240802765 5196616 0 -1
-0.13037815690040588 0.0060908072628080845 -0.25132712721824646 5196616 0 -1
-0.13037419319152832 0.005715396720916033 -0.25135624408721924 5131080 0 -1
-0.13037487864494324 0.005527856294065714 -0.2513759136199951 5065287 0 -1
-0.13036979734897614 0.0047776829451322556 -0.2514396607875824 5394252 0 -1
-0.13036827743053436 0.00459021283313632 -0.2514550983905792 5262666 0 -1
-0.13036663830280304 0.004215417429804802 -0.25148865580558777 4867908 0 -1
-0.13036513328552246 0.0040280455723404884 -0.25150415301322937 4539200 0 -1
-0.1303623616695404 0.0036534082610160112 -0.2515355348587036 4538686 0 -1
-0.13036179542541504 0.0034661609679460526 -0.2515528202056885 4604736 0 -1
-0.1303572803735733 0.0027174302376806736 -0.25161755084991455 4604479 0 -1
-0.13035616278648376 0.0025303279981017113 -0.25163373351097107 4538686 0 -1
-0.13035526871681213 0.0023432616144418716 -0.251650333404541 4275771 0 -1
-0.1303539127111435 0.002156219445168972 -0.2516660988330841 4144186 0 -1
-0.13035288453102112 0.001969214528799057 -0.25168249011039734 4407358 0 -1
-0.1303502768278122 0.0015952938701957464 -0.25171416997909546 4801859 0 -1
-0.13034945726394653 0.001408387441188097 -0.25173094868659973 4867652 0 -1
-0.13034549355506897 0.0006610688287764788 -0.2517966628074646 5328202 0 -1
-0.13034503161907196 0.0004743199679069221 -0.2518141567707062 5327945 0 -1
-0.13034191727638245 0.00010091029980685562 -0.2518447935581207 5459788 0 -1
-0.13034173846244812 -0.00008574577077524737 -0.2518627941608429 5591374 0 -1
-0.13033851981163025 -0.00045896059600636363 -0.2518932521343231 5854288 0 -1
-0.13033823668956757 -0.0006455247639678419 -0.2519110441207886 6314577 0 -1
-0.13033492863178253 -0.0015778832603245974 -0.25199630856513977 11375407 0 -1
-0.1303316354751587 -0.002136912429705262 -0.2520449161529541 6051663 0 -1
-0.13032768666744232 -0.00250940746627748 -0.2520739436149597 7826243 0 -1
-0.13032804429531097 -0.0026956521905958652 -0.25209295749664307 9535032 0 -1
-0.1303260773420334 -0.003626361722126603 -0.25218069553375244 6248773 0 -1
-0.13032269477844238 -0.004184365272521973 -0.25222909450531006 5131080 0 -1
-0.13031812012195587 -0.004556128289550543 -0.2522568106651306 5328458 0 -1
-0.13031916320323944 -0.004742079880088568 -0.252277135848999 4999494 0 -1
-0.1303107589483261 -0.005670864600688219 -0.2523522675037384 5130823 0 -1
-0.13030707836151123 -0.0062278080731630325 -0.2524000406265259 4670529 0 -1
-0.13030314445495605 -0.006784453988075256 -0.2524471879005432 4341563 0 -1
-0.13030461966991425 -0.007897458970546722 -0.252559632062912 4670271 0 -1
-0.13030113279819489 -0.008453321643173695 -0.25260764360427856 4867652 0 -1
-0.1302952766418457 -0.008823500946164131 -0.2526327669620514 4473151 0 -1
-0.13029733300209045 -0.009008883498609066 -0.2526549994945526 4801859 0 -1
-0.13029617071151733 -0.00974948424845934 -0.2527256906032562 5854288 0 -1
-0.1302986890077591 -0.009934778325259686 -0.2527488172054291 5788753 0 -1
-0.13029251992702484 -0.010304419323801994 -0.25277331471443176 5328202 0 -1
-0.13029514253139496 -0.010489645414054394 -0.25279664993286133 5328458 0 -1
-0.13028879463672638 -0.010859065689146519 -0.2528207302093506 5328459 0 -1
-0.13029158115386963 -0.011044228449463844 -0.25284436345100403 5196873 0 -1
-0.13028131425380707 -0.011967521160840988 -0.25291547179222107 5722960 0 -1
-0.13028442859649658 -0.012152561917901039 -0.25293973088264465 5789010 0 -1
-0.1302773803472519 -0.012521311640739441 -0.2529624104499817 5722960 0 -1
-0.130280539393425 -0.014182633720338345 -0.2531321942806244 4999238 0 -1
-0.1302730292081833 -0.01455061137676239 -0.2531539499759674 5065031 0 -1
-0.13027702271938324 -0.014735418371856213 -0.2531798481941223 5262667 0 -1
-0.13027341663837433 -0.015287915244698524 -0.2532272934913635 5196873 0 -1
-0.13027864694595337 -0.01620953343808651 -0.25332820415496826 5196359 0 -1
-0.13027523458003998 -0.01676137000322342 -0.25337597727775574 4670529 0 -1
-0.1302669793367386 -0.01712832599878311 -0.253396213054657 4341821 0 -1
-0.13027174770832062 -0.017312925308942795 -0.2534235715866089 4275771 0 -1
-0.130259707570076 -0.018230702728033066 -0.25349074602127075 4341564 0 -1
-0.13026481866836548 -0.018415220081806183 -0.25351881980895996 4275514 0 -1
-0.13025613129138947 -0.01878148689866066 -0.2535381019115448 4472894 0 -1
-0.1302523910999298 -0.019331978633999825 -0.2535851299762726 4604480 0 -1
-0.13026553392410278 -0.020435364916920662 -0.2537192404270172 4933701 0 -1
-0.13025891780853271 -0.021534735336899757 -0.25381481647491455 5196873 0 -1
-0.13024593889713287 -0.022448761388659477 -0.2538798153400421 5722703 0 -1
-0.13025222718715668 -0.022633004933595657 -0.253910094499588 5722960 0 -1
-0.130242258310318 -0.02299749106168747 -0.2539268136024475 5591374 0 -1
-0.13023895025253296 -0.0235460102558136 -0.25397443771362305 5789010 0 -1
-0.13046777248382568 -0.025785211473703384 -0.25463736057281494 5722703 0 -1
-0.1304539144039154 -0.026696983724832535 -0.25470051169395447 5196616 0 -1
-0.13046152889728546 -0.026881368830800056 -0.2547333836555481 5131080 0 -1
-0.1304478645324707 0.04430136829614639 -0.24822375178337097 4736323 0 -1
-0.1304623782634735 0.0439184308052063 -0.24828724563121796 4538944 0 -1
-0.13045169413089752 0.04372096061706543 -0.24828484654426575 4473150 0 -1
-0.13044121861457825 0.04352362081408501 -0.24828286468982697 4736322 0 -1
-0.1304309070110321 0.04332638904452324 -0.24828115105628967 5262152 0 -1
-0.1304553598165512 0.043140724301338196 -0.24834568798542023 5327945 0 -1
-0.13044485449790955 0.042943503707647324 -0.24834364652633667 5131080 0 -1
-0.1304345726966858 0.0427464097738266 -0.24834200739860535 5130823 0 -1
