VERSION .7
FIELDS x y z rgb label object
SIZE 4 4 4 4 4 4
TYPE F F F I I I
COUNT 1 1 1 1 1 1
WIDTH 635
HEIGHT 1
POINTS 635
VIEWPOINT 0 0 0 1 0 0 0
DATA ascii
-0.09632498025894165 -0.016911856830120087 -0.3149866461753845 5854546 0 -1
-0.09632982313632965 -0.017985887825489044 -0.31503504514694214 5722704 0 -1
-0.09633433073759079 -0.018201224505901337 -0.31505629420280457 5656654 0 -1
-0.09632609784603119 -0.018628474324941635 -0.3150424063205719 5065030 0 -1
-0.09633070230484009 -0.018843701109290123 -0.3150639832019806 4933444 0 -1
-0.0963175892829895 -0.01905539259314537 -0.3150275945663452 4802115 0 -1
-0.09632784128189087 -0.020342057570815086 -0.31510022282600403 4999237 0 -1
-0.09631870687007904 -0.020767904818058014 -0.31508341431617737 4670272 0 -1
-0.09631446748971939 -0.02140825241804123 -0.3150891065597534 4867907 0 -1
-0.09632615000009537 -0.02269219420850277 -0.3151664435863495 5262410 0 -1
-0.09632181376218796 -0.023331154137849808 -0.31517183780670166 5196359 0 -1
-0.09631185978651047 -0.023755108937621117 -0.3151523470878601 4933701 0 -1
-0.09632501751184464 -0.025036446750164032 -0.315234512090683 5196617 0 -1
-0.09631448239088058 -0.025459304451942444 -0.3152131140232086 5196617 0 -1
-0.09651919454336166 -0.027430256828665733 -0.3159419596195221 5986132 0 -1
-0.09650702774524689 -0.03018830716609955 -0.31598731875419617 5131079 0 -1
-0.09654103219509125 -0.03041110932826996 -0.3161052465438843 4999493 0 -1
-0.09651196002960205 -0.031885288655757904 -0.31605592370033264 4473150 0 -1
-0.09651967883110046 -0.03209957107901573 -0.3160877823829651 4670272 0 -1
-0.09650707244873047 -0.032518643885850906 -0.3160596191883087 4604479 0 -1
-0.0950123518705368 0.03757302463054657 -0.30984753370285034 5657424 0 -1
-0.09500578045845032 0.037344738841056824 -0.3098328113555908 5657424 0 -1
-0.09499915689229965 0.03711651638150215 -0.3098178803920746 5525581 0 -1
-0.09499260038137436 0.03688840568065643 -0.30980318784713745 5328459 0 -1
-0.09498613327741623 0.03666042536497116 -0.3097888231277466 5196873 0 -1
-0.09500638395547867 0.03644276037812233 -0.30986151099205017 5196873 0 -1
-0.09500002861022949 0.0362149253487587 -0.30984747409820557 5460045 0 -1
-0.09499356895685196 0.03598713502287865 -0.3098330795764923 5525838 0 -1
-0.09498710185289383 0.03575942665338516 -0.30981868505477905 5328460 0 -1
-0.0950068011879921 0.0355415865778923 -0.309889554977417 5196874 0 -1
-0.09499411284923553 0.03508656471967697 -0.30986154079437256 5262666 0 -1
-0.09498780965805054 0.03485919162631035 -0.3098476231098175 5262666 0 -1
-0.09498170763254166 0.03463197872042656 -0.30983439087867737 5196874 0 -1
-0.09500069916248322 0.03441394492983818 -0.30990299582481384 5196873 0 -1
-0.09499441832304001 0.03418677672743797 -0.30988916754722595 5196873 0 -1
-0.09500695019960403 0.033741604536771774 -0.3099433481693268 5196873 0 -1
-0.0950007438659668 0.033514656126499176 -0.3099297285079956 5262666 0 -1
-0.0949946865439415 0.03328784555196762 -0.309916615486145 5196874 0 -1
-0.09498253464698792 0.03283446282148361 -0.3098902404308319 5065031 0 -1
-0.09497671574354172 0.03260798007249832 -0.30987784266471863 4802115 0 -1
-0.09497092664241791 0.03238159790635109 -0.3098655939102173 4736322 0 -1
-0.09498852491378784 0.03216322138905525 -0.30992966890335083 4802115 0 -1
-0.09498275071382523 0.031936947256326675 -0.3099174499511719 4867908 0 -1
-0.09497684240341187 0.03171071782708168 -0.3099047839641571 4933445 0 -1
-0.09497123211622238 0.03148466721177101 -0.30989310145378113 4933701 0 -1
-0.09498829394578934 0.03126616030931473 -0.309955358505249 4933701 0 -1
-0.09498246759176254 0.03104015439748764 -0.30994299054145813 4933701 0 -1
-0.0951632410287857 0.030650358647108078 -0.3105461299419403 4736322 0 -1
-0.09517981857061386 0.03043130598962307 -0.31060683727264404 4538686 0 -1
-0.09517426043748856 0.03020520880818367 -0.31059530377388 4604479 0 -1
-0.09516876190900803 0.029979202896356583 -0.3105839192867279 4801858 0 -1
-0.09516333043575287 0.0297533068805933 -0.3105728328227997 4736066 0 -1
-0.09515799582004547 0.02952752448618412 -0.31056204438209534 4604736 0 -1
-0.09517387300729752 0.029308350756764412 -0.3106204569339752 4538944 0 -1
-0.09516845643520355 0.029082654044032097 -0.310609370470047 4604736 0 -1
-0.09516318887472153 0.02885708026587963 -0.31059879064559937 4736322 0 -1
-0.09516793489456177 0.02818693220615387 -0.310634046792984 4604736 0 -1
-0.09516265243291855 0.027961626648902893 -0.3106233477592468 4867652 0 -1
-0.09515757858753204 0.027736464515328407 -0.31061339378356934 5196617 0 -1
-0.09515254944562912 0.027511391788721085 -0.310603529214859 5131080 0 -1
-0.09516716748476028 0.0272920373827219 -0.3106578290462494 5065030 0 -1
-0.09516197443008423 0.02706703171133995 -0.3106474280357361 5065030 0 -1
-0.09515698254108429 0.026842165738344193 -0.3106377422809601 4999494 0 -1
-0.09515204280614853 0.026617392897605896 -0.31062817573547363 5131080 0 -1
-0.09514721482992172 0.026392729952931404 -0.3106189966201782 5262409 0 -1
-0.09515158832073212 0.02572430670261383 -0.3106529414653778 13618378 0 -1
-0.09516511112451553 0.025504834949970245 -0.3107036352157593 13157827 0 -1
-0.09516027569770813 0.02528047189116478 -0.3106943964958191 9868176 0 -1
-0.09515555202960968 0.02505621686577797 -0.31068548560142517 6381147 0 -1
-0.09514613449573517 0.024607958272099495 -0.31066784262657166 5920595 0 -1
-0.0951417088508606 0.024384019896388054 -0.3106599748134613 5657168 0 -1
-0.09515440464019775 0.024164501577615738 -0.3107079565525055 5393996 0 -1
-0.09514103829860687 0.023493224754929543 -0.3106839060783386 5328459 0 -1
-0.09513676166534424 0.023269658908247948 -0.3106764554977417 5262409 0 -1
-0.09514876455068588 0.02305011823773384 -0.3107222020626068 5196873 0 -1
-0.09514432400465012 0.022826632484793663 -0.3107142448425293 5131081 0 -1
-0.09534534811973572 0.022429263219237328 -0.31138378381729126 5262666 0 -1
-0.09534106403589249 0.022205552086234093 -0.31137630343437195 5328202 0 -1
-0.09533687680959702 0.021981941536068916 -0.3113691806793213 5393995 0 -1
-0.09533977508544922 0.021315008401870728 -0.3113981783390045 5327945 0 -1
-0.09533580392599106 0.02109171263873577 -0.3113917410373688 5262409 0 -1
-0.09533176571130753 0.020868470892310143 -0.31138506531715393 5393739 0 -1
-0.09532790631055832 0.020645344629883766 -0.31137895584106445 5459531 0 -1
-0.0953240767121315 0.020422302186489105 -0.3113729655742645 5196873 0 -1
-0.09533435851335526 0.02020232193171978 -0.31141307950019836 5065287 0 -1
-0.09533049166202545 0.019979381933808327 -0.3114069402217865 5131080 0 -1
-0.09532690048217773 0.019756576046347618 -0.31140172481536865 5196616 0 -1
-0.09531976282596588 0.019311191514134407 -0.3113914132118225 4999494 0 -1
-0.09532936662435532 0.019091244786977768 -0.3114292621612549 4867908 0 -1
-0.09532567858695984 0.01886867918074131 -0.31142371892929077 4867908 0 -1
-0.0953221470117569 0.01864621788263321 -0.31141865253448486 4999493 0 -1
-0.09533131122589111 0.018426280468702316 -0.311455100774765 5065286 0 -1
-0.09532788395881653 0.01820395514369011 -0.31145039200782776 4999237 0 -1
-0.09532094746828079 0.017759501934051514 -0.31144070625305176 4867651 0 -1
-0.09531773626804352 0.01753743179142475 -0.3114366829395294 4867394 0 -1
-0.09552063792943954 0.0173528753221035 -0.3121061623096466 4801858 0 -1
-0.09532786160707474 0.016653869301080704 -0.31149569153785706 4736322 0 -1
-0.09532461315393448 0.01643209345638752 -0.3114915192127228 4736322 0 -1
-0.09551592171192169 0.016243474557995796 -0.3121231496334076 4736322 0 -1
-0.09551290422677994 0.016021428629755974 -0.3121197819709778 4802115 0 -1
-0.09551001340150833 0.015799472108483315 -0.312116801738739 4933445 0 -1
-0.09551745653152466 0.015579272992908955 -0.3121476173400879 5065287 0 -1
-0.0955144613981247 0.01535741612315178 -0.31214433908462524 5065287 0 -1
-0.0955115556716919 0.015135642141103745 -0.3121412992477417 4933701 0 -1
-0.09551281481981277 0.014472251757979393 -0.312164843082428 5525581 0 -1
-0.09550998359918594 0.014250744134187698 -0.3121620714664459 5656910 0 -1
-0.09550739079713821 0.014029338955879211 -0.31216004490852356 5722703 0 -1
-0.0955047681927681 0.013807999901473522 -0.31215792894363403 5722960 0 -1
-0.09550835192203522 0.01336675975471735 -0.31218254566192627 5591374 0 -1
-0.0955059826374054 0.013145637698471546 -0.3121812641620636 5788752 0 -1
-0.09550358355045319 0.01292457990348339 -0.31217989325523376 6183253 0 -1
-0.09550227969884872 0.012042058631777763 -0.31220144033432007 5722960 0 -1
-0.09550008922815323 0.011821340769529343 -0.31220072507858276 5920339 0 -1
-0.09550508111715317 0.011601559817790985 -0.3122234642505646 6117717 0 -1
-0.09550292789936066 0.011380963027477264 -0.3122228682041168 6183510 0 -1
-0.09550072997808456 0.011160426773130894 -0.3122221827507019 6117974 0 -1
-0.09549879282712936 0.010939983651041985 -0.31222230195999146 6052182 0 -1
-0.09550326317548752 0.010720323771238327 -0.3122432827949524 5986388 0 -1
-0.09549570083618164 0.009839420206844807 -0.31224432587623596 5854289 0 -1
-0.09549417346715927 0.009619390591979027 -0.31224578619003296 5854547 0 -1
-0.09549779444932938 0.009399931877851486 -0.3122640550136566 5854803 0 -1
-0.09549619257450104 0.009180009365081787 -0.3122652471065521 5788753 0 -1
-0.09549460560083389 0.008960150182247162 -0.3122664988040924 5656910 0 -1
-0.09549786150455475 0.008740797638893127 -0.31228357553482056 5459788 0 -1
-0.09549620747566223 0.008521047420799732 -0.31228458881378174 5262409 0 -1
-0.09549473226070404 0.007643087301403284 -0.3123054802417755 5328202 0 -1
-0.09549324959516525 0.007423653267323971 -0.31230705976486206 5196873 0 -1
-0.09549210965633392 0.007204305846244097 -0.3123096823692322 5131080 0 -1
-0.09549430012702942 0.006985264830291271 -0.31232330203056335 4999494 0 -1
-0.09549297392368317 0.006766017526388168 -0.3123253583908081 4933444 0 -1
-0.09549079835414886 0.006327740848064423 -0.31233108043670654 4802115 0 -1
-0.09548991173505783 0.006108705420047045 -0.3123345971107483 4867908 0 -1
-0.09548967331647873 0.005014633294194937 -0.312365859746933 4604993 0 -1
-0.09548894315958023 0.0047959499061107635 -0.3123698830604553 4604736 0 -1
-0.09548818320035934 0.004577323328703642 -0.3123737871646881 4604479 0 -1
-0.09548743069171906 0.003921856638044119 -0.31239053606987 4670529 0 -1
-0.09568114578723907 0.0028363082092255354 -0.3130563199520111 4473406 0 -1
-0.09568096697330475 0.0026177666150033474 -0.3130621910095215 4670529 0 -1
-0.09568037837743759 0.0023992699570953846 -0.31306663155555725 4867651 0 -1
-0.09568005055189133 0.0021808366291224957 -0.31307199597358704 4933701 0 -1
-0.09567975252866745 0.0017441441304981709 -0.31308382749557495 4867908 0 -1
-0.09567989408969879 0.001525885658338666 -0.3130907118320465 4736322 0 -1
-0.09567715972661972 0.0006533653358928859 -0.31310737133026123 5130823 0 -1
-0.09567710757255554 0.0004353816621005535 -0.31311360001564026 5393994 0 -1
-0.09567547589540482 -0.0002182394382543862 -0.31312745809555054 6445636 0 -1
-0.0956762358546257 -0.0006537166191264987 -0.3131427466869354 11507249 0 -1
-0.09567669034004211 -0.0008713774150237441 -0.3131506145000458 11835693 0 -1
-0.09567578136920929 -0.0017414526082575321 -0.31317323446273804 5788492 0 -1
-0.09567653387784958 -0.0019588542636483908 -0.3131820857524872 5985866 0 -1
-0.09567389637231827 -0.0023934030905365944 -0.31318625807762146 9798204 0 -1
-0.09567474573850632 -0.0026106478180736303 -0.31319546699523926 11638574 0 -1
-0.09567105025053024 -0.0028277074452489614 -0.31318971514701843 12098857 0 -1
-0.09567073732614517 -0.003912696614861488 -0.31322064995765686 5591631 0 -1
-0.09567186236381531 -0.004129584413021803 -0.3132307529449463 5525838 0 -1
-0.09566962718963623 -0.004779679700732231 -0.3132425844669342 5656910 0 -1
-0.09586821496486664 -0.005223696120083332 -0.31390559673309326 5065029 0 -1
-0.09586174041032791 -0.006307576783001423 -0.31391641497612 5131080 0 -1
-0.09586335718631744 -0.006524374708533287 -0.31392812728881836 5196873 0 -1
-0.09586698561906815 -0.006957862991839647 -0.313952773809433 4736322 0 -1
-0.09586241841316223 -0.0073905400931835175 -0.31395062804222107 4736321 0 -1
-0.09586434066295624 -0.007607118226587772 -0.3139633238315582 4736322 0 -1
-0.09586827456951141 -0.008904960006475449 -0.31401461362838745 4999237 0 -1
-0.09586328268051147 -0.009336564689874649 -0.3140110373497009 4736065 0 -1
-0.09586568921804428 -0.009552760049700737 -0.31402531266212463 4670529 0 -1
-0.0958578810095787 -0.009767874144017696 -0.31400614976882935 4802115 0 -1
-0.09586020559072495 -0.009983955882489681 -0.31402015686035156 4933701 0 -1
-0.09585988521575928 -0.010846776887774467 -0.31404468417167664 4802116 0 -1
-0.09586259722709656 -0.011062675155699253 -0.3140599727630615 4933701 0 -1
-0.09585662186145782 -0.011492984369397163 -0.3140532076358795 5196873 0 -1
-0.09586535394191742 -0.012140201404690742 -0.31410104036331177 4867908 0 -1
-0.0958685353398323 -0.012355896644294262 -0.31411781907081604 5131080 0 -1
-0.09585901349782944 -0.013430261053144932 -0.3141186535358429 5657424 0 -1
-0.09585224092006683 -0.01385915745049715 -0.3141092360019684 5920339 0 -1
-0.09586259722709656 -0.01450511533766985 -0.31416240334510803 6183768 0 -1
-0.09585175663232803 -0.015576431527733803 -0.31415891647338867 5986132 0 -1
-0.09585566073656082 -0.015791509300470352 -0.31417807936668396 5986132 0 -1
-0.09586352109909058 -0.016221584752202034 -0.31421664357185364 5986131 0 -1
-0.0958598405122757 -0.01686372607946396 -0.3142238259315491 5789010 0 -1
-0.09605631232261658 -0.018613619729876518 -0.3149191737174988 5196616 0 -1
-0.0960582047700882 -0.020326144993305206 -0.3149767816066742 4933445 0 -1
-0.09604495018720627 -0.021391673013567924 -0.3149654269218445 4933444 0 -1
-0.0960567444562912 -0.02267482876777649 -0.3150427043437958 5262410 0 -1
-0.09605258703231812 -0.02331341803073883 -0.3150483965873718 5327945 0 -1
-0.09604278951883316 -0.02373712882399559 -0.3150290548801422 5065287 0 -1
-0.09604837745428085 -0.023951496928930283 -0.3150538504123688 5131080 0 -1
-0.096055768430233 -0.02501760609447956 -0.3151102662086487 5196617 0 -1
-0.09623987972736359 -0.0254917461425066 -0.315727174282074 5196873 0 -1
-0.09624983370304108 -0.027409987524151802 -0.3158178925514221 6052182 0 -1
-0.09623794257640839 -0.030166322365403175 -0.31586286425590515 5262409 0 -1
-0.09626013785600662 -0.030809128656983376 -0.31595510244369507 5393737 0 -1
-0.0962432399392128 -0.031862322241067886 -0.3159319758415222 4407357 0 -1
-0.09625081717967987 -0.03207642212510109 -0.3159632980823517 4604736 0 -1
-0.09623845666646957 -0.03249529004096985 -0.3159356713294983 4736065 0 -1
-0.0947224423289299 0.03777210786938667 -0.3096669018268585 5459788 0 -1
-0.09473664313554764 0.03732658177614212 -0.3097265660762787 5459789 0 -1
-0.09473010152578354 0.037098512053489685 -0.3097117841243744 5394252 0 -1
-0.09472359716892242 0.03687053546309471 -0.30969709157943726 5328459 0 -1
-0.09471715241670609 0.03664267435669899 -0.3096826374530792 5196873 0 -1
-0.09473735839128494 0.036425139755010605 -0.3097552955150604 5196873 0 -1
-0.09473080188035965 0.03619733825325966 -0.30974042415618896 5460045 0 -1
-0.0947243943810463 0.03596968576312065 -0.3097260892391205 5591375 0 -1
-0.0947180837392807 0.0357421450316906 -0.3097120225429535 5460045 0 -1
-0.09473773837089539 0.035524435341358185 -0.30978286266326904 5394252 0 -1
-0.09472507983446121 0.035069648176431656 -0.3097546100616455 5460045 0 -1
-0.09471873193979263 0.03484237566590309 -0.30974042415618896 5460045 0 -1
-0.09471260756254196 0.03461527079343796 -0.3097269535064697 5394252 0 -1
-0.09473159909248352 0.034397371113300323 -0.30979564785957336 5196617 0 -1
-0.09472550451755524 0.03417038545012474 -0.3097822368144989 5196617 0 -1
-0.09471315890550613 0.03371661528944969 -0.30975499749183655 5328459 0 -1
-0.09473162144422531 0.03349856659770012 -0.3098219335079193 5196617 0 -1
-0.09472556412220001 0.033271875232458115 -0.3098086714744568 5130824 0 -1
-0.09471336007118225 0.03281870856881142 -0.3097818195819855 5065030 0 -1
-0.09489316493272781 0.03243149816989899 -0.31038299202919006 4802115 0 -1
-0.09491082280874252 0.032212819904088974 -0.3104472756385803 4802115 0 -1
-0.09490504860877991 0.03198621794581413 -0.3104349672794342 4867651 0 -1
-0.09489361941814423 0.031533293426036835 -0.31041064858436584 4867908 0 -1
-0.09491073340177536 0.03131449595093727 -0.3104732036590576 4736322 0 -1
-0.09490492939949036 0.03108815662562847 -0.3104607164859772 4736322 0 -1
-0.09489934891462326 0.030861975625157356 -0.3104490041732788 4802115 0 -1
-0.09488824754953384 0.030409878119826317 -0.310425728559494 4736065 0 -1
-0.09490466862916946 0.03019093908369541 -0.31048595905303955 4604736 0 -1
-0.09489918500185013 0.02996506169438362 -0.3104745149612427 4538686 0 -1
-0.09489373117685318 0.02973928116261959 -0.31046321988105774 4472894 0 -1
-0.09488850086927414 0.02951364405453205 -0.31045258045196533 4407358 0 -1
-0.09490436315536499 0.029294602572917938 -0.3105109930038452 4472894 0 -1
-0.09489884227514267 0.029068991541862488 -0.3104994595050812 4473150 0 -1
-0.09489356726408005 0.02884354069828987 -0.3104887008666992 4604736 0 -1
-0.0948982834815979 0.02817375771701336 -0.3105236291885376 4736322 0 -1
-0.09489317238330841 0.027948617935180664 -0.31051331758499146 4933701 0 -1
-0.0948880985379219 0.027723584324121475 -0.3105032742023468 5131080 0 -1
-0.09488295763731003 0.027498599141836166 -0.31049293279647827 5196616 0 -1
-0.09487796574831009 0.027273742482066154 -0.31048306822776794 5196616 0 -1
-0.0948924571275711 0.02705451473593712 -0.3105369508266449 5130823 0 -1
-0.09488748013973236 0.02682977356016636 -0.31052714586257935 4999494 0 -1
-0.0948825478553772 0.026605119928717613 -0.31051746010780334 5065287 0 -1
-0.0948777124285698 0.02638057991862297 -0.310508131980896 5262409 0 -1
-0.09488672763109207 0.025936834514141083 -0.3105505406856537 13684171 0 -1
-0.09488194435834885 0.025712499395012856 -0.3105413615703583 13618378 0 -1
-0.09489547461271286 0.025493159890174866 -0.3105921149253845 13157827 0 -1
-0.0948905274271965 0.02526889368891716 -0.31058236956596375 9802384 0 -1
-0.09488580375909805 0.02504475973546505 -0.3105733394622803 6315354 0 -1
-0.09487655758857727 0.024596791714429855 -0.31055599451065063 5657424 0 -1
-0.0948721393942833 0.024372974410653114 -0.31054797768592834 5460045 0 -1
-0.09488483518362045 0.024153586477041245 -0.31059595942497253 5328202 0 -1
-0.09506890922784805 0.023754457011818886 -0.31121140718460083 5460045 0 -1
-0.09506449103355408 0.02353045716881752 -0.3112034201622009 5393995 0 -1
-0.09506025165319443 0.023306576535105705 -0.311195969581604 5262666 0 -1
-0.09507229924201965 0.023086724802851677 -0.31124186515808105 5196873 0 -1
-0.09506789594888687 0.02286291867494583 -0.31123390793800354 5065544 0 -1
-0.09506368637084961 0.022639233618974686 -0.3112265467643738 5065288 0 -1
-0.09507530927658081 0.022419355809688568 -0.3112710416316986 5065288 0 -1
-0.09507112205028534 0.022195791825652122 -0.311263769865036 5196873 0 -1
-0.09506694972515106 0.021972304210066795 -0.3112565279006958 5262666 0 -1
-0.09506978839635849 0.021305743604898453 -0.3112851083278656 5130824 0 -1
-0.09506566822528839 0.02108253538608551 -0.31127801537513733 5262410 0 -1
-0.09506182372570038 0.02085946500301361 -0.31127187609672546 5459788 0 -1
-0.09505803138017654 0.020636478438973427 -0.31126585602760315 5591117 0 -1
-0.09505420178174973 0.020413558930158615 -0.31125974655151367 5262409 0 -1
-0.09506449103355408 0.020193712785840034 -0.3112998604774475 4999494 0 -1
-0.09506063908338547 0.019970903173089027 -0.31129366159439087 5065286 0 -1
-0.09505675733089447 0.019748160615563393 -0.3112873136997223 5130823 0 -1
-0.09504961222410202 0.01930302381515503 -0.31127673387527466 5131080 0 -1
-0.09505580365657806 0.018860826268792152 -0.311309814453125 4736322 0 -1
-0.09505216032266617 0.01863846741616726 -0.3113043010234833 4933444 0 -1
-0.09506132453680038 0.01841866411268711 -0.31134068965911865 4999237 0 -1
-0.09524505585432053 0.017788514494895935 -0.31196165084838867 4801858 0 -1
-0.09524187445640564 0.017566123977303505 -0.3119576573371887 4801857 0 -1
-0.09525038301944733 0.017345936968922615 -0.31199195981025696 4933443 0 -1
-0.09525207430124283 0.016681285575032234 -0.31201663613319397 4801859 0 -1
-0.09524888545274734 0.01645919494330883 -0.31201258301734924 4801859 0 -1
-0.09524568915367126 0.016237176954746246 -0.31200850009918213 4736322 0 -1
-0.09524267166852951 0.016015255823731422 -0.31200501322746277 4736065 0 -1
-0.09524712711572647 0.015573342330753803 -0.3120323717594147 4999237 0 -1
-0.09524405747652054 0.01535160094499588 -0.312028706073761 4999494 0 -1
-0.09524121880531311 0.015129966661334038 -0.312025785446167 4736322 0 -1
-0.09524255990982056 0.014466973021626472 -0.3120492994785309 5262409 0 -1
-0.09523976594209671 0.014245598576962948 -0.31204649806022644 5591117 0 -1
-0.09523717314004898 0.014024321921169758 -0.3120443820953369 5657167 0 -1
-0.09523456543684006 0.013803111389279366 -0.3120421767234802 5591374 0 -1
-0.09523817151784897 0.013362135738134384 -0.3120667338371277 5525581 0 -1
-0.09523577243089676 0.013141138479113579 -0.3120652735233307 5722959 0 -1
-0.09523336589336395 0.012920208275318146 -0.3120637536048889 6051924 0 -1
-0.09523206949234009 0.01203820388764143 -0.3120848834514618 5789010 0 -1
-0.09522991627454758 0.011817620135843754 -0.3120841979980469 5986132 0 -1
-0.09523489326238632 0.011597971431910992 -0.3121068775653839 6183253 0 -1
-0.095232754945755 0.011377502232789993 -0.312106192111969 6249047 0 -1
-0.0952305719256401 0.011157097294926643 -0.3121054172515869 6249304 0 -1
-0.09522860497236252 0.010936780832707882 -0.31210529804229736 6183511 0 -1
-0.09523305296897888 0.010717252269387245 -0.3121262490749359 6051925 0 -1
-0.09523104131221771 0.010497044771909714 -0.3121259808540344 5854803 0 -1
-0.0952291488647461 0.01027691550552845 -0.312126100063324 5657424 0 -1
-0.0952257290482521 0.009836888872087002 -0.3121275305747986 6051668 0 -1
-0.09522408246994019 0.009616978466510773 -0.3121285140514374 6051924 0 -1
-0.09522772580385208 0.009397652931511402 -0.3121468126773834 5986132 0 -1
-0.09522601962089539 0.009177849628031254 -0.3121475279331207 5789009 0 -1
-0.09522772580385208 0.008738904260098934 -0.3121657967567444 5459789 0 -1
-0.09522615373134613 0.008519290946424007 -0.3121669888496399 5328459 0 -1
-0.09541966766119003 0.007657501380890608 -0.3128266930580139 5196616 0 -1
-0.09522319585084915 0.007422550115734339 -0.31218892335891724 5131080 0 -1
-0.0952220931649208 0.007203337270766497 -0.3121916353702545 5065287 0 -1
-0.0952242761850357 0.006984425708651543 -0.31220507621765137 4933958 0 -1
-0.095223069190979 0.006765319500118494 -0.31220749020576477 4867909 0 -1
-0.09522069990634918 0.006327290087938309 -0.31221234798431396 4867908 0 -1
-0.09541497379541397 0.0061209057457745075 -0.31285563111305237 4802115 0 -1
-0.09541573375463486 0.00524432398378849 -0.3128834664821625 4538686 0 -1
-0.09521991014480591 0.005014990456402302 -0.3122476041316986 4275771 0 -1
-0.09541408717632294 0.004806256853044033 -0.3128906786441803 4407613 0 -1
-0.0952182188630104 0.004577933810651302 -0.3122546970844269 4604479 0 -1
-0.09541270136833191 0.004368436522781849 -0.31289881467819214 4473149 0 -1
-0.09541260451078415 0.003930901642888784 -0.31291112303733826 4473150 0 -1
-0.0954119861125946 0.003712195437401533 -0.3129154145717621 4538944 0 -1
-0.09541120380163193 0.0030564558692276478 -0.3129318058490753 4473150 0 -1
-0.09541080892086029 0.0028379838913679123 -0.31293681263923645 4473406 0 -1
-0.09541065245866776 0.0026195754762738943 -0.31294262409210205 4802115 0 -1
-0.09541007876396179 0.002401211531832814 -0.31294703483581543 5065031 0 -1
-0.09540975838899612 0.002182910917326808 -0.31295230984687805 4933701 0 -1
-0.09540966898202896 0.0019646708387881517 -0.31295832991600037 4802115 0 -1
-0.09540869295597076 0.0017464695265516639 -0.3129614293575287 4867908 0 -1
-0.09540966898202896 0.0015283586690202355 -0.31297093629837036 4867909 0 -1
-0.09540846198797226 0.0013102676020935178 -0.3129732608795166 4801859 0 -1
-0.0954069048166275 0.0006563689094036818 -0.3129870891571045 5196360 0 -1
-0.09540701657533646 0.00043851902591995895 -0.3129937946796417 5196359 0 -1
-0.0954054445028305 -0.00021470397769007832 -0.31300756335258484 6314307 0 -1
-0.09540611505508423 -0.0006499148439615965 -0.31302234530448914 11573040 0 -1
-0.09540657699108124 -0.0008674425771459937 -0.3130301833152771 11835694 0 -1
-0.09540572017431259 -0.0017369852866977453 -0.31305253505706787 5920077 0 -1
-0.09540397673845291 -0.0023885387927293777 -0.31306570768356323 9863997 0 -1
-0.09540484100580215 -0.0026056498754769564 -0.31307485699653625 11638574 0 -1
-0.09540112316608429 -0.00282257585786283 -0.3130689561367035 12098601 0 -1
-0.09540200233459473 -0.003039577743038535 -0.3130781054496765 10455604 0 -1
-0.095400869846344 -0.003906899131834507 -0.31309962272644043 5328715 0 -1
-0.09540201723575592 -0.004123654682189226 -0.3131096661090851 5328458 0 -1
-0.09539981186389923 -0.00477334950119257 -0.31312131881713867 5196873 0 -1
-0.09540259093046188 -0.005206428002566099 -0.3131430149078369 5065029 0 -1
-0.09539737552404404 -0.005422521382570267 -0.3131321966648102 4999236 0 -1
-0.0955914855003357 -0.00630029896274209 -0.3137945532798767 5130824 0 -1
-0.09559318423271179 -0.00651696790009737 -0.3138064444065094 5394252 0 -1
-0.09559675306081772 -0.006950182840228081 -0.31383076310157776 4933445 0 -1
-0.09559424966573715 -0.007599045056849718 -0.31384146213531494 4736066 0 -1
-0.09558667242527008 -0.008679043501615524 -0.313848078250885 4999237 0 -1
-0.09559834748506546 -0.00889609381556511 -0.3138927221298218 4999237 0 -1
-0.09559329599142075 -0.009327422827482224 -0.3138887584209442 4867651 0 -1
-0.09558793902397156 -0.009758464060723782 -0.31388378143310547 4867908 0 -1
-0.09559047222137451 -0.009974432177841663 -0.31389838457107544 4802372 0 -1
-0.09559273719787598 -0.011052465066313744 -0.31393733620643616 4999494 0 -1
-0.095586858689785 -0.011482513509690762 -0.3139306902885437 5262666 0 -1
-0.09558968245983124 -0.011698146350681782 -0.3139462471008301 5196873 0 -1
-0.0955955758690834 -0.012129322625696659 -0.3139781951904297 5065287 0 -1
-0.0955987349152565 -0.012344881892204285 -0.3139948546886444 5262923 0 -1
-0.09558616578578949 -0.013203265145421028 -0.31397882103919983 5788753 0 -1
-0.0955892950296402 -0.013418574817478657 -0.3139953911304474 5723217 0 -1
-0.09558266401290894 -0.013847220689058304 -0.313986212015152 6117717 0 -1
-0.09559296816587448 -0.01449276227504015 -0.3140389919281006 6183767 0 -1
-0.09577727317810059 -0.015595169737935066 -0.31467610597610474 6051668 0 -1
-0.09578117728233337 -0.01581055298447609 -0.31469523906707764 6051668 0 -1
-0.09578903019428253 -0.016241230070590973 -0.31473368406295776 6051925 0 -1
-0.09578535705804825 -0.016884269192814827 -0.3147405683994293 5591374 0 -1
-0.09579028189182281 -0.017956959083676338 -0.3147884011268616 5591374 0 -1
-0.0957949161529541 -0.018172049894928932 -0.3148099482059479 5393995 0 -1
-0.0957866832613945 -0.01859874650835991 -0.3147955536842346 5262153 0 -1
-0.09577835351228714 -0.019025148823857307 -0.3147808313369751 5130823 0 -1
-0.09578291326761246 -0.0192400012165308 -0.3148021697998047 5196616 0 -1
-0.09578870236873627 -0.020310206338763237 -0.31485286355018616 4867908 0 -1
-0.09578484296798706 -0.020950185135006905 -0.31485915184020996 4867394 0 -1
-0.09577573090791702 -0.021375104784965515 -0.3148418664932251 4933444 0 -1
-0.09578754007816315 -0.022657446563243866 -0.3149186968803406 5196616 0 -1
-0.09578355401754379 -0.02329566515982151 -0.31492459774017334 5459532 0 -1
-0.0957736149430275 -0.0237190630286932 -0.3149045705795288 5394251 0 -1
-0.09577923268079758 -0.023933302611112595 -0.31492942571640015 5460045 0 -1
-0.09578689932823181 -0.024998804554343224 -0.31498634815216064 5065287 0 -1
-0.09598076343536377 -0.027389729395508766 -0.31569385528564453 6249561 0 -1
-0.09598122537136078 -0.029724320396780968 -0.315765380859375 5262666 0 -1
-0.09599136561155319 -0.030786758288741112 -0.31583064794540405 5196359 0 -1
-0.09597468376159668 -0.03183932229876518 -0.315807580947876 4407357 0 -1
-0.0959823802113533 -0.03205333277583122 -0.31583932042121887 4473150 0 -1
-0.09596981108188629 -0.03247184678912163 -0.3158107101917267 4801858 0 -1
-0.09445362538099289 0.03775372728705406 -0.30956095457077026 5393995 0 -1
-0.09444701671600342 0.03752563148736954 -0.30954575538635254 5328203 0 -1
-0.09446778893470764 0.03730843961238861 -0.30962035059928894 5262667 0 -1
-0.09446115791797638 0.037080444395542145 -0.30960512161254883 5328460 0 -1
-0.09445475041866302 0.036852627992630005 -0.3095906674861908 5328459 0 -1
-0.0944482758641243 0.036624860018491745 -0.3095758557319641 5262666 0 -1
-0.09446848928928375 0.0364074781537056 -0.30964866280555725 5328459 0 -1
-0.09446190297603607 0.03617978096008301 -0.3096335828304291 5525838 0 -1
-0.09445546567440033 0.03595222905278206 -0.3096189796924591 5591631 0 -1
-0.09444915503263474 0.035724807530641556 -0.3096047639846802 5525838 0 -1
-0.09446883201599121 0.03550724312663078 -0.30967575311660767 5525582 0 -1
-0.09446248412132263 0.03527991473674774 -0.3096614181995392 5525838 0 -1
-0.09445612132549286 0.035052672028541565 -0.3096470832824707 5591374 0 -1
-0.0944499522447586 0.034825582057237625 -0.3096332848072052 5591630 0 -1
-0.09444376081228256 0.034598566591739655 -0.3096194565296173 5460045 0 -1
-0.09443757683038712 0.034371644258499146 -0.3096056878566742 5196873 0 -1
-0.09445640444755554 0.03415384516119957 -0.30967384576797485 5196617 0 -1
-0.09445032477378845 0.0339270681142807 -0.309660404920578 5394252 0 -1
-0.09444417804479599 0.03370035067200661 -0.30964669585227966 5393995 0 -1
-0.094438336789608 0.033473823219537735 -0.3096340000629425 5131080 0 -1
-0.09445664286613464 0.03325588256120682 -0.30970048904418945 5065031 0 -1
-0.09445042163133621 0.03302933648228645 -0.3096865117549896 5130823 0 -1
-0.09444444626569748 0.03280295804142952 -0.30967339873313904 5065030 0 -1
-0.09443867206573486 0.032576728612184525 -0.3096608817577362 4933701 0 -1
-0.0944327563047409 0.03235054016113281 -0.30964791774749756 4867908 0 -1
-0.09445036202669144 0.03213243559002876 -0.30971211194992065 4867908 0 -1
-0.09444455057382584 0.031906384974718094 -0.30969947576522827 4867908 0 -1
-0.09443321079015732 0.03145464137196541 -0.3096751570701599 4801859 0 -1
-0.0946412906050682 0.03129957616329193 -0.31036391854286194 4670529 0 -1
-0.09463566541671753 0.031073417514562607 -0.3103519082069397 4670529 0 -1
-0.09463001042604446 0.03084733337163925 -0.3103398084640503 4736322 0 -1
-0.09462439268827438 0.03062134049832821 -0.31032782793045044 4736579 0 -1
-0.09461897611618042 0.030395492911338806 -0.3103164732456207 4802115 0 -1
-0.09463538229465485 0.030176691710948944 -0.31037673354148865 4604736 0 -1
-0.09462986141443253 0.02995092235505581 -0.31036505103111267 4341308 0 -1
-0.09462440758943558 0.02972525544464588 -0.3103535771369934 4275515 0 -1
-0.09461908787488937 0.029499715194106102 -0.3103425204753876 4275772 0 -1
-0.09463494271039963 0.029280805960297585 -0.31040093302726746 4341565 0 -1
-0.09462951868772507 0.029055343940854073 -0.31038954854011536 4407357 0 -1
-0.09462423622608185 0.02883000299334526 -0.3103786110877991 4538943 0 -1
-0.09461886435747147 0.028604723513126373 -0.3103674352169037 4670529 0 -1
-0.09462893754243851 0.028160594403743744 -0.3104132413864136 4867908 0 -1
-0.09462381899356842 0.027935579419136047 -0.31040284037590027 4999494 0 -1
-0.09461864084005356 0.027710625901818275 -0.31039223074913025 5130823 0 -1
-0.09461349993944168 0.027485769242048264 -0.31038179993629456 5196616 0 -1
-0.09460850805044174 0.027261029928922653 -0.3103717863559723 5262409 0 -1
-0.09462300688028336 0.02704194188117981 -0.31042569875717163 5131080 0 -1
-0.09461808204650879 0.026817336678504944 -0.31041595339775085 4999237 0 -1
-0.09461313486099243 0.026592804118990898 -0.3104061186313629 5065030 0 -1
-0.09460832178592682 0.026368392631411552 -0.3103967010974884 5131080 0 -1
-0.0946173146367073 0.02592489682137966 -0.31043896079063416 13749707 0 -1
-0.09461253136396408 0.025700679048895836 -0.3104296028614044 13618378 0 -1
-0.09460774809122086 0.025476543232798576 -0.31042027473449707 13092034 0 -1
-0.09462111443281174 0.025257330387830734 -0.31047049164772034 9802383 0 -1
-0.09461646527051926 0.025033345445990562 -0.3104616105556488 6315354 0 -1
-0.0946071520447731 0.024585599079728127 -0.3104437589645386 5591630 0 -1
-0.09460270404815674 0.024361899122595787 -0.3104355037212372 5459788 0 -1
-0.0946153998374939 0.02414264902472496 -0.31048354506492615 5328202 0 -1
-0.09479911625385284 0.02374379150569439 -0.311099112033844 5525838 0 -1
-0.09479474276304245 0.02351992204785347 -0.3110910952091217 5459788 0 -1
-0.09479048103094101 0.023296158760786057 -0.31108346581459045 5328459 0 -1
-0.09480251371860504 0.023076439276337624 -0.3111293315887451 5197130 0 -1
-0.09479806572198868 0.022852741181850433 -0.31112104654312134 5131081 0 -1
-0.09480548650026321 0.022409437224268913 -0.31115809082984924 4999495 0 -1
-0.09480126947164536 0.022185994312167168 -0.31115061044692993 5131080 0 -1
-0.09479711949825287 0.021962638944387436 -0.31114330887794495 5196617 0 -1
-0.09479999542236328 0.021296465769410133 -0.3111717402935028 5065031 0 -1
-0.09479600936174393 0.021073414012789726 -0.3111649751663208 5262410 0 -1
-0.09479199349880219 0.02085042931139469 -0.31115812063217163 5525325 0 -1
-0.09478819370269775 0.020627563819289207 -0.3111519515514374 5591374 0 -1
-0.09478436410427094 0.020404770970344543 -0.31114572286605835 5262409 0 -1
-0.0947946310043335 0.020185047760605812 -0.311185747385025 4933701 0 -1
-0.09479083120822906 0.019962375983595848 -0.31117957830429077 5065030 0 -1
-0.09478713572025299 0.019739801064133644 -0.31117376685142517 5196615 0 -1
-0.09477997571229935 0.01929491013288498 -0.3111628592014313 5196872 0 -1
-0.0947895348072052 0.019075220450758934 -0.3112005889415741 4802115 0 -1
-0.09478592872619629 0.018852923065423965 -0.31119504570961 4604736 0 -1
-0.09478248655796051 0.018630731850862503 -0.31119003891944885 4801858 0 -1
-0.09479167312383652 0.01841106452047825 -0.311226487159729 4933444 0 -1
-0.09478803724050522 0.018188949674367905 -0.31122085452079773 4933445 0 -1
-0.09478127956390381 0.017745036631822586 -0.3112112581729889 4801858 0 -1
-0.09497169405221939 0.01755901612341404 -0.31184276938438416 4801858 0 -1
-0.09497702121734619 0.017116809263825417 -0.3118728697299957 5065029 0 -1
-0.09497379511594772 0.01689472422003746 -0.3118686079978943 4933444 0 -1
-0.09498188644647598 0.016674695536494255 -0.3119014501571655 4801859 0 -1
-0.09497867524623871 0.0164527278393507 -0.3118971884250641 4801859 0 -1
-0.09497550129890442 0.016230838373303413 -0.3118930459022522 4736322 0 -1
-0.09497249126434326 0.016009047627449036 -0.3118894696235657 4736065 0 -1
-0.09497711062431335 0.015567420981824398 -0.3119172155857086 4933444 0 -1
-0.09497405588626862 0.015345808118581772 -0.31191349029541016 4867908 0 -1
-0.09497113525867462 0.015124289318919182 -0.3119101822376251 4604737 0 -1
-0.0949723944067955 0.014461669139564037 -0.31193313002586365 4999238 0 -1
-0.09496966004371643 0.014240431599318981 -0.31193041801452637 5459788 0 -1
-0.09496698528528214 0.014019274152815342 -0.3119279146194458 5591374 0 -1
-0.09496454894542694 0.013798215426504612 -0.3119261860847473 5460045 0 -1
-0.09496817737817764 0.013357502408325672 -0.3119506239891052 5460044 0 -1
-0.0949656218290329 0.013136611320078373 -0.3119485080242157 5657166 0 -1
-0.09496339410543442 0.012915833853185177 -0.31194743514060974 5985875 0 -1
-0.0949619859457016 0.012034335173666477 -0.3119678795337677 5854546 0 -1
-0.09495990723371506 0.011813891120254993 -0.31196731328964233 5986132 0 -1
-0.09496492892503738 0.011594376526772976 -0.31199005246162415 6117461 0 -1
-0.09496276080608368 0.0113740349188447 -0.3119891583919525 6248790 0 -1
-0.09495874494314194 0.01093358639627695 -0.3119884729385376 6183511 0 -1
-0.0949632003903389 0.010714189149439335 -0.31200939416885376 6051925 0 -1
-0.09495577216148376 0.009834334254264832 -0.31200993061065674 6051925 0 -1
-0.09495403617620468 0.009614545851945877 -0.3120104968547821 6117461 0 -1
-0.09495770186185837 0.009395352564752102 -0.31202876567840576 6051924 0 -1
-0.09495609253644943 0.009175688959658146 -0.31202971935272217 5854545 0 -1
-0.09495778381824493 0.008737004362046719 -0.3120477497577667 5459789 0 -1
-0.09495624899864197 0.008517525158822536 -0.31204894185066223 5394253 0 -1
-0.09495468437671661 0.007640604395419359 -0.3120687007904053 5130823 0 -1
-0.09495333582162857 0.007421441376209259 -0.31207048892974854 5065287 0 -1
-0.09495220333337784 0.007202358450740576 -0.3120730221271515 4999494 0 -1
-0.09495439380407333 0.006983579136431217 -0.31208643317222595 4933958 0 -1
-0.09495316445827484 0.0067646014504134655 -0.31208860874176025 4933702 0 -1
-0.09495101124048233 0.006326849572360516 -0.31209394335746765 4933445 0 -1
-0.09494997560977936 0.006108067464083433 -0.31209680438041687 4802115 0 -1
-0.09514565020799637 0.00524454889819026 -0.31276488304138184 4472893 0 -1
-0.09514478594064713 0.00502561591565609 -0.3127683103084564 4012856 0 -1
-0.09514274448156357 0.004369193688035011 -0.3127802312374115 4407357 0 -1
-0.09514246881008148 0.003931915387511253 -0.3127917945384979 4341565 0 -1
-0.09514077752828598 0.0028396619018167257 -0.3128173351287842 4538943 0 -1
-0.09514056146144867 0.0026213834062218666 -0.3128228485584259 4867908 0 -1
-0.09513997286558151 0.0024031514767557383 -0.31282711029052734 5196616 0 -1
-0.09513974189758301 0.0021849856711924076 -0.3128325641155243 4933701 0 -1
-0.09513965994119644 0.0017488276353105903 -0.31284475326538086 4867909 0 -1
-0.0951395258307457 0.0015308292349800467 -0.3128505051136017 4933702 0 -1
-0.095136858522892 0.0006593725411221385 -0.31286656856536865 5262409 0 -1
-0.0951371118426323 0.000441656302427873 -0.31287360191345215 5065030 0 -1
-0.09513543546199799 -0.0002111675712512806 -0.31288671493530273 6380099 0 -1
-0.09513621777296066 -0.0006461123703047633 -0.31290170550346375 11638832 0 -1
-0.09513664245605469 -0.000863506633322686 -0.312909334897995 11835950 0 -1
-0.0951358899474144 -0.001732517033815384 -0.3129316568374634 5985870 0 -1
-0.09513666480779648 -0.0019496523309499025 -0.31294041872024536 6182988 0 -1
-0.09513407200574875 -0.002383667975664139 -0.3129442632198334 9798461 0 -1
-0.09513495862483978 -0.0026006456464529037 -0.3129534125328064 11572782 0 -1
-0.09513125568628311 -0.002817438216879964 -0.31294745206832886 12164137 0 -1
-0.0951322466135025 -0.0030343097168952227 -0.31295689940452576 10455604 0 -1
-0.09513120353221893 -0.0039010990876704454 -0.31297826766967773 5196872 0 -1
-0.09513240307569504 -0.004117722623050213 -0.31298840045928955 5131080 0 -1
-0.09513495862483978 -0.004550833720713854 -0.31300923228263855 4999238 0 -1
-0.09513013064861298 -0.004767011851072311 -0.31299954652786255 4933701 0 -1
-0.09512637555599213 -0.005199465900659561 -0.3129996061325073 4999237 0 -1
-0.09512770920991898 -0.0054157814010977745 -0.3130101263523102 5065029 0 -1
-0.09512674063444138 -0.006280163768678904 -0.31303176283836365 5065031 0 -1
-0.09532327204942703 -0.006509560626000166 -0.3136846721172333 5394253 0 -1
-0.09532685577869415 -0.006942507810890675 -0.3137089014053345 4933701 0 -1
-0.09532880038022995 -0.007158925291150808 -0.3137214779853821 4802114 0 -1
-0.09532243758440018 -0.007374656852334738 -0.31370675563812256 4736322 0 -1
-0.0951296016573906 -0.007575457450002432 -0.3130783438682556 4736066 0 -1
-0.09532646089792252 -0.007807247340679169 -0.31373247504234314 4604993 0 -1
-0.09531684964895248 -0.008670296519994736 -0.31372568011283875 4998980 0 -1
-0.09532853215932846 -0.008887212723493576 -0.3137702941894531 5064773 0 -1
-0.09532344341278076 -0.009318267926573753 -0.3137660026550293 4933444 0 -1
-0.09532594680786133 -0.009534203447401524 -0.31378042697906494 4999494 0 -1
-0.09531822055578232 -0.009749051183462143 -0.3137611746788025 4933701 0 -1
-0.09532072395086288 -0.00996488332748413 -0.3137756586074829 4867908 0 -1
-0.09532023966312408 -0.010826606303453445 -0.3137988746166229 4802116 0 -1
-0.09532298892736435 -0.011042236350476742 -0.31381410360336304 4999494 0 -1
-0.0953260064125061 -0.01125786080956459 -0.31383028626441956 5262666 0 -1
-0.09531727433204651 -0.011472032405436039 -0.31380775570869446 5262666 0 -1
-0.09532008320093155 -0.011687526479363441 -0.3138231635093689 5131080 0 -1
-0.09532616287469864 -0.01211845874786377 -0.3138556182384491 5262410 0 -1
-0.09532919526100159 -0.012333867140114307 -0.313871830701828 5459789 0 -1
-0.09531666338443756 -0.01319170743227005 -0.31385537981987 5854546 0 -1
-0.09531991928815842 -0.013406903482973576 -0.313872367143631 5789010 0 -1
-0.09531325101852417 -0.013835267163813114 -0.31386280059814453 6249303 0 -1
-0.09532365947961807 -0.01448042131960392 -0.3139156997203827 6183767 0 -1
-0.09531678259372711 -0.01576518826186657 -0.31393036246299744 6051667 0 -1
-0.09532484412193298 -0.016194753348827362 -0.31396931409835815 5986132 0 -1
-0.09551579505205154 -0.01687045395374298 -0.31461697816848755 5459788 0 -1
-0.09551729261875153 -0.018583867698907852 -0.31467175483703613 5327945 0 -1
-0.09550072997808456 -0.020290281623601913 -0.3146670460700989 4867907 0 -1
-0.095515675842762 -0.02093384973704815 -0.3147350549697876 4933187 0 -1
-0.09550652652978897 -0.021358482539653778 -0.3147173821926117 4867908 0 -1
-0.09551849961280823 -0.022640040144324303 -0.31479424238204956 5065030 0 -1
-0.09551458805799484 -0.02327786386013031 -0.31480011343955994 5394252 0 -1
-0.09550449252128601 -0.02370094321668148 -0.3147793114185333 5525581 0 -1
-0.09551030397415161 -0.023915095254778862 -0.3148047626018524 5657166 0 -1
-0.095518097281456 -0.02497994713485241 -0.3148617148399353 5065286 0 -1
-0.09570135921239853 -0.02545350417494774 -0.31547826528549194 5262409 0 -1
-0.09570766985416412 -0.025667939335107803 -0.31550535559654236 5328201 0 -1
-0.09569688886404037 -0.02609037235379219 -0.31548240780830383 5131080 0 -1
-0.09570324420928955 -0.0263047032058239 -0.3155095875263214 5196873 0 -1
-0.09571179002523422 -0.027369419112801552 -0.315569132566452 6249304 0 -1
-0.09571246802806854 -0.029702559113502502 -0.315640389919281 5328459 0 -1
-0.09570787101984024 -0.030336342751979828 -0.3156440854072571 5065030 0 -1
-0.09571389108896255 -0.0320301353931427 -0.31571418046951294 4407357 0 -1
-0.09570149332284927 -0.0324484221637249 -0.31568586826324463 4801858 0 -1
-0.09417841583490372 0.037507351487874985 -0.30943942070007324 5394253 0 -1
-0.09419915080070496 0.037290286272764206 -0.30951395630836487 5328459 0 -1
-0.09419253468513489 0.03706241026520729 -0.3094986379146576 5262923 0 -1
-0.09418610483407974 0.03683469817042351 -0.30948394536972046 5328459 0 -1
-0.09417963027954102 0.0366070531308651 -0.309469074010849 5460045 0 -1
-0.09419980645179749 0.0363897867500782 -0.3095417618751526 5591631 0 -1
-0.0941932275891304 0.03616220876574516 -0.30952656269073486 5723217 0 -1
-0.09418688714504242 0.03593480959534645 -0.30951210856437683 5788753 0 -1
-0.09418046474456787 0.03570745885372162 -0.3094973862171173 5591374 0 -1
-0.09419378638267517 0.0352628231048584 -0.30955395102500916 5460045 0 -1
-0.09418730437755585 0.03503565117716789 -0.3095390498638153 5460045 0 -1
-0.0941811129450798 0.03480866923928261 -0.3095250725746155 5460045 0 -1
-0.09417501837015152 0.034581806510686874 -0.3095114231109619 5394252 0 -1
-0.09416883438825607 0.03435499966144562 -0.3094974756240845 5262666 0 -1
-0.0941876694560051 0.03413734212517738 -0.3095656931400299 5196873 0 -1
-0.09418155252933502 0.03391066938638687 -0.30955198407173157 5328459 0 -1
-0.09417548775672913 0.03368409723043442 -0.30953842401504517 5262666 0 -1
-0.09416947513818741 0.03345762938261032 -0.3095250427722931 5131081 0 -1
-0.09418775141239166 0.03323981538414955 -0.30959147214889526 5065288 0 -1
-0.09436620771884918 0.03285349905490875 -0.31019076704978943 4999494 0 -1
-0.09436047077178955 0.03262694925069809 -0.3101782500743866 4867908 0 -1
-0.09435460716485977 0.03240044042468071 -0.3101653456687927 4999237 0 -1
-0.09437225013971329 0.032182034105062485 -0.31022971868515015 5196872 0 -1
-0.09436646848917007 0.03195566311478615 -0.31021708250045776 5130823 0 -1
-0.09435519576072693 0.03150326758623123 -0.31019270420074463 4736066 0 -1
-0.09434948861598969 0.03127717226743698 -0.31018027663230896 4801859 0 -1
-0.09436647593975067 0.031058626249432564 -0.3102424740791321 4736322 0 -1
-0.09436088055372238 0.030832678079605103 -0.31023043394088745 4670529 0 -1
-0.09434974938631058 0.03038104437291622 -0.31020647287368774 4538943 0 -1
-0.09436612576246262 0.03016236610710621 -0.3102666437625885 4407357 0 -1
-0.09436061978340149 0.029936719685792923 -0.31025487184524536 4341307 0 -1
-0.09435515105724335 0.029711173847317696 -0.3102431893348694 4209978 0 -1
-0.09434983134269714 0.029485752806067467 -0.310232013463974 4144185 0 -1
-0.0943656787276268 0.029266975820064545 -0.31029045581817627 4275771 0 -1
-0.09436023980379105 0.029041631147265434 -0.31027889251708984 4473150 0 -1
-0.09435492753982544 0.028816405683755875 -0.31026774644851685 4538943 0 -1
-0.0943596139550209 0.028147365897893906 -0.31030207872390747 4999494 0 -1
-0.09433446079492569 0.027916545048356056 -0.3102256655693054 5065286 0 -1
-0.09434930980205536 0.027697637677192688 -0.31028077006340027 5130823 0 -1
-0.09434434771537781 0.027472952380776405 -0.3102707266807556 5130823 0 -1
-0.09433937817811966 0.02724834531545639 -0.31026071310043335 5196616 0 -1
-0.09435384720563889 0.027029383927583694 -0.3103145658969879 5130823 0 -1
-0.09434874355792999 0.0268048495054245 -0.31030407547950745 4999494 0 -1
-0.09434398263692856 0.026580490171909332 -0.3102946877479553 4999237 0 -1
-0.09433895349502563 0.026356136426329613 -0.31028440594673157 4933700 0 -1
-0.09434805065393448 0.025912927463650703 -0.3103269040584564 13749963 0 -1
-0.09434328973293304 0.025688840076327324 -0.3103175163269043 13618378 0 -1
-0.0943385511636734 0.02546483837068081 -0.31030818819999695 13092290 0 -1
-0.09433402121067047 0.02524097077548504 -0.3102995455265045 9868176 0 -1
-0.0943472757935524 0.02502189390361309 -0.31034940481185913 6381148 0 -1
-0.09433792531490326 0.024574384093284607 -0.31033116579055786 5723216 0 -1
-0.09433341026306152 0.024350790306925774 -0.3103225827217102 5591631 0 -1
-0.0945383757352829 0.024180851876735687 -0.3110031187534332 5460045 0 -1
-0.09453378617763519 0.023956898599863052 -0.3109942674636841 5591375 0 -1
-0.09452936798334122 0.023733066394925117 -0.3109859824180603 5657168 0 -1
-0.09433278441429138 0.023461516946554184 -0.31034550070762634 5525838 0 -1
-0.09432859718799591 0.023238347843289375 -0.31033796072006226 5460045 0 -1
-0.09434059262275696 0.023019202053546906 -0.310383677482605 5328460 0 -1
-0.0943361297249794 0.022796081379055977 -0.3103752136230469 5262666 0 -1
-0.09452427178621292 0.022619128227233887 -0.3110004961490631 5262923 0 -1
-0.09434349089860916 0.02235393039882183 -0.3104119300842285 5262667 0 -1
-0.09433925151824951 0.022131051868200302 -0.3104042112827301 5131080 0 -1
-0.09452755004167557 0.02195296809077263 -0.31103000044822693 4999494 0 -1
-0.09452342242002487 0.021729817613959312 -0.31102266907691956 4999494 0 -1
-0.09451952576637268 0.021506793797016144 -0.3110160827636719 5130823 0 -1
-0.09453047066926956 0.021287189796566963 -0.31105837225914 5196617 0 -1
-0.09452632814645767 0.02106422372162342 -0.3110509216785431 5262410 0 -1
-0.0945223718881607 0.02084137685596943 -0.3110441267490387 5459788 0 -1
-0.09451860934495926 0.02061864733695984 -0.31103795766830444 5591117 0 -1
-0.09451477229595184 0.020395975559949875 -0.3110315501689911 5262409 0 -1
