VERSION .7
FIELDS x y z rgb label object
SIZE 4 4 4 4 4 4
TYPE F F F I I I
COUNT 1 1 1 1 1 1
WIDTH 637
HEIGHT 1
POINTS 637
VIEWPOINT 0 0 0 1 0 0 0
DATA ascii
-0.18768972158432007 -0.0015665931859984994 -0.278592586517334 9535548 0 -1
-0.18769490718841553 -0.0022125907707959414 -0.27867650985717773 11309872 0 -1
-0.1876969337463379 -0.0024278820492327213 -0.2787049412727356 8615233 0 -1
-0.18769367039203644 -0.0026430769357830286 -0.2787255048751831 6643278 0 -1
-0.18769767880439758 -0.003718943102285266 -0.2788585126399994 11375406 0 -1
-0.18770435452461243 -0.004364264663308859 -0.2789447009563446 8943935 0 -1
-0.1877065896987915 -0.00586884468793869 -0.27912601828575134 5657166 0 -1
-0.18743465840816498 -0.006074856035411358 -0.278747022151947 5591374 0 -1
-0.18743163347244263 -0.006503699347376823 -0.2787933051586151 5196617 0 -1
-0.18743425607681274 -0.006718224845826626 -0.2788226008415222 5130824 0 -1
-0.18743962049484253 -0.007147216238081455 -0.27888140082359314 5065031 0 -1
-0.18744494020938873 -0.008218980394303799 -0.2790163457393646 4407358 0 -1
-0.18744409084320068 -0.00886155478656292 -0.27909132838249207 4670016 0 -1
-0.18745066225528717 -0.009290152229368687 -0.27915188670158386 5064773 0 -1
-0.18745648860931396 -0.010360724292695522 -0.279287725687027 4736322 0 -1
-0.18745173513889313 -0.010788371786475182 -0.2793314754962921 4801858 0 -1
-0.18745532631874084 -0.011002501472830772 -0.279362291097641 4736065 0 -1
-0.18745021522045135 -0.011429947800934315 -0.27940553426742554 5065287 0 -1
-0.18745580315589905 -0.012499210424721241 -0.27954110503196716 5393994 0 -1
-0.18746764957904816 -0.013141070492565632 -0.27963516116142273 5393995 0 -1
-0.1874617338180542 -0.013567882589995861 -0.27967724204063416 5722703 0 -1
-0.1874813735485077 -0.015277298167347908 -0.2799103260040283 5854804 0 -1
-0.18747928738594055 -0.015917165204882622 -0.2799836993217468 6183254 0 -1
-0.1872050017118454 -0.01738414168357849 -0.2797524034976959 5262666 0 -1
-0.18721994757652283 -0.018023844808340073 -0.27985119819641113 5657424 0 -1
-0.18722538650035858 -0.019725361838936806 -0.2800634205341339 4867908 0 -1
-0.1872483491897583 -0.0220639631152153 -0.28037887811660767 4341308 0 -1
-0.18723906576633453 -0.022487236186861992 -0.2804161310195923 4604736 0 -1
-0.1872481107711792 -0.023548781871795654 -0.2805577218532562 4538943 0 -1
-0.18724468350410461 -0.024184267967939377 -0.2806294560432434 4736322 0 -1
-0.1872345358133316 -0.024606728926301003 -0.2806655168533325 4736322 0 -1
-0.18698559701442719 -0.02837754227221012 -0.2807544469833374 5788753 0 -1
-0.188415065407753 0.041357144713401794 -0.27506959438323975 4538943 0 -1
-0.18814094364643097 0.0410756878554821 -0.27469465136528015 4538687 0 -1
-0.188430055975914 0.04069562256336212 -0.2751672863960266 4473150 0 -1
-0.18842515349388123 0.04047301039099693 -0.27518534660339355 4538943 0 -1
-0.18842017650604248 0.04025042802095413 -0.2752033472061157 4604736 0 -1
-0.18841542303562164 0.0400279238820076 -0.2752216160297394 4604736 0 -1
-0.18841059505939484 0.03980544954538345 -0.27523985505104065 4604736 0 -1
-0.18843457102775574 0.03958906605839729 -0.27530014514923096 4736322 0 -1
-0.18840131163597107 0.039360687136650085 -0.2752768099308014 4802115 0 -1
-0.1884250044822693 0.03914424777030945 -0.27533668279647827 4867908 0 -1
-0.18842025101184845 0.03892190381884575 -0.2753550410270691 4867908 0 -1
-0.1884388029575348 0.03848306089639664 -0.27543267607688904 4999494 0 -1
-0.18843424320220947 0.03826083242893219 -0.27545127272605896 5131080 0 -1
-0.1884295642375946 0.038038622587919235 -0.27546972036361694 5262666 0 -1
-0.18842028081417084 0.037594325840473175 -0.2755067050457001 5262409 0 -1
-0.18841588497161865 0.03737228363752365 -0.2755255699157715 5262409 0 -1
-0.1884382963180542 0.03715556114912033 -0.2755836248397827 5196873 0 -1
-0.18843373656272888 0.0369335301220417 -0.275602251291275 5196873 0 -1
-0.18842929601669312 0.03671155497431755 -0.2756210267543793 5196873 0 -1
-0.18842045962810516 0.036267735064029694 -0.2756587564945221 5460045 0 -1
-0.1884162575006485 0.03604591265320778 -0.275677889585495 5591374 0 -1
-0.18842901289463043 0.03538544848561287 -0.27577245235443115 5723217 0 -1
-0.1884247362613678 0.03516372665762901 -0.2757914662361145 5854803 0 -1
-0.18842056393623352 0.03494207188487053 -0.27581068873405457 5986388 0 -1
-0.18841642141342163 0.03472045436501503 -0.275829941034317 6249303 0 -1
-0.18843711912631989 0.034503426402807236 -0.27588555216789246 6249046 0 -1
-0.18843291699886322 0.03428184241056442 -0.27590471506118774 5854545 0 -1
-0.18842893838882446 0.03406033664941788 -0.2759242355823517 5657167 0 -1
-0.18842476606369019 0.033838823437690735 -0.27594342827796936 5722960 0 -1
-0.18842081725597382 0.03361739590764046 -0.2759629786014557 5722960 0 -1
-0.18843673169612885 0.03317883610725403 -0.27603694796562195 5657167 0 -1
-0.18843278288841248 0.03295748680830002 -0.2760564982891083 5459788 0 -1
-0.18842874467372894 0.0327361561357975 -0.27607592940330505 5394252 0 -1
-0.18842491507530212 0.03251489996910095 -0.2760956287384033 5525581 0 -1
-0.1884402185678482 0.032076396048069 -0.27616873383522034 5788753 0 -1
-0.1884363889694214 0.03185522183775902 -0.2761884927749634 5591631 0 -1
-0.18843257427215576 0.03163408115506172 -0.27620822191238403 5131080 0 -1
-0.18814992904663086 0.0309262927621603 -0.27586981654167175 5327945 0 -1
-0.18814648687839508 0.03070567175745964 -0.2758901119232178 5459531 0 -1
-0.1881645917892456 0.030488576740026474 -0.27594196796417236 5393995 0 -1
-0.18816086649894714 0.030267957597970963 -0.27596184611320496 5328202 0 -1
-0.18815365433692932 0.029826853424310684 -0.27600187063217163 4670529 0 -1
-0.18817119300365448 0.029609685763716698 -0.27605295181274414 4473150 0 -1
-0.18816764652729034 0.02938920632004738 -0.27607306838035583 4341564 0 -1
-0.18816079199314117 0.028948388993740082 -0.27611368894577026 4341307 0 -1
-0.18815740942955017 0.028728043660521507 -0.27613404393196106 4538686 0 -1
-0.18817420303821564 0.02851078286767006 -0.2761840224266052 4736065 0 -1
-0.18817071616649628 0.028290463611483574 -0.2762042284011841 4670529 0 -1
-0.1881672739982605 0.02807018533349037 -0.2762245237827301 4473406 0 -1
-0.18816068768501282 0.027629775926470757 -0.27626553177833557 4736322 0 -1
-0.18815748393535614 0.027409637346863747 -0.27628618478775024 4867908 0 -1
-0.18817341327667236 0.02719229646027088 -0.2763349115848541 4933444 0 -1
-0.18816713988780975 0.026752160862088203 -0.2763763964176178 4867908 0 -1
-0.18816393613815308 0.026532137766480446 -0.27639704942703247 4999238 0 -1
-0.1881609857082367 0.026312176138162613 -0.2764180600643158 5196616 0 -1
-0.18815802037715912 0.026092253625392914 -0.2764390707015991 5065030 0 -1
-0.1881730854511261 0.02587484009563923 -0.2764865458011627 4933444 0 -1
-0.18817009031772614 0.025654954835772514 -0.27650749683380127 5065029 0 -1
-0.18816711008548737 0.025435108691453934 -0.2765284776687622 5262152 0 -1
-0.18816420435905457 0.025215301662683487 -0.2765495479106903 4999237 0 -1
-0.18817298114299774 0.02455836907029152 -0.27663853764533997 5985875 0 -1
-0.18817006051540375 0.024338677525520325 -0.27665963768959045 5722960 0 -1
-0.18816743791103363 0.0241190567612648 -0.27668115496635437 5460044 0 -1
-0.18816468119621277 0.023899445310235023 -0.2767024636268616 5328715 0 -1
-0.1881621778011322 0.023679906502366066 -0.2767241299152374 5262666 0 -1
-0.18817569315433502 0.023462392389774323 -0.27676936984062195 5328459 0 -1
-0.18817299604415894 0.023242874071002007 -0.2767908275127411 5394252 0 -1
-0.18817052245140076 0.023023415356874466 -0.2768125534057617 5459788 0 -1
-0.18817833065986633 0.022367043420672417 -0.27690020203590393 5460045 0 -1
-0.18817578256130219 0.022147685289382935 -0.2769218385219574 5657423 0 -1
-0.1881733536720276 0.021928373724222183 -0.2769436240196228 5854546 0 -1
-0.18817104399204254 0.021709106862545013 -0.27696558833122253 5920338 0 -1
-0.18790796399116516 0.021241456270217896 -0.2766290605068207 5920595 0 -1
-0.18817855417728424 0.021053124219179153 -0.2770528495311737 5920595 0 -1
-0.18817636370658875 0.020833980292081833 -0.27707499265670776 5723217 0 -1
-0.1879102736711502 0.02014891989529133 -0.27675923705101013 5196873 0 -1
-0.18818117678165436 0.01995917409658432 -0.2771836519241333 5262410 0 -1
-0.1879059076309204 0.019711527973413467 -0.27680355310440063 5328202 0 -1
-0.18790392577648163 0.019492901861667633 -0.27682599425315857 5262153 0 -1
-0.18791264295578003 0.019057024270296097 -0.2768895626068115 5196617 0 -1
-0.18791049718856812 0.018838459625840187 -0.27691176533699036 5131081 0 -1
-0.18790864944458008 0.018619956448674202 -0.2769344449043274 4933701 0 -1
-0.18791480362415314 0.01796574518084526 -0.27701959013938904 4736323 0 -1
-0.1879110336303711 0.01752897910773754 -0.2770647704601288 4999494 0 -1
-0.18790937960147858 0.01731066405773163 -0.2770877182483673 4802116 0 -1
-0.18790632486343384 0.016874143853783607 -0.27713391184806824 4472894 0 -1
-0.18790483474731445 0.01665593311190605 -0.27715709805488586 4341563 0 -1
-0.18791377544403076 0.016438666731119156 -0.2771957218647003 4407100 0 -1
-0.18790917098522186 0.015784256160259247 -0.2772650420665741 4801859 0 -1
-0.18791614472866058 0.015348954126238823 -0.2773260772228241 4538943 0 -1
-0.18791478872299194 0.015130940824747086 -0.27734947204589844 4999237 0 -1
-0.18791230022907257 0.014695017598569393 -0.277396559715271 5130823 0 -1
-0.18764185905456543 0.013586596585810184 -0.2771241068840027 4670530 0 -1
-0.18764765560626984 0.01315227895975113 -0.2771833837032318 4802116 0 -1
-0.1876448541879654 0.012500184588134289 -0.27725526690483093 4867909 0 -1
-0.18764787912368774 0.011414400301873684 -0.2773866057395935 5394252 0 -1
-0.1876472681760788 0.011197244748473167 -0.2774110436439514 5460045 0 -1
-0.18765264749526978 0.010980469174683094 -0.27744436264038086 5460045 0 -1
-0.18765193223953247 0.010763359256088734 -0.2774686813354492 5460045 0 -1
-0.1876509189605713 0.010329240933060646 -0.2775179147720337 5262667 0 -1
-0.18765418231487274 0.009244718588888645 -0.2776496112346649 5723218 0 -1
-0.1876579076051712 0.008811197243630886 -0.2777058482170105 5723217 0 -1
-0.18765762448310852 0.008594369515776634 -0.2777307629585266 5591374 0 -1
-0.18765734136104584 0.00816081278026104 -0.2777811288833618 5657424 0 -1
-0.18766073882579803 0.007077538874000311 -0.27791300415992737 5393996 0 -1
-0.1876634955406189 0.0066444543190300465 -0.2779678702354431 5130824 0 -1
-0.18766362965106964 0.006427902262657881 -0.27799344062805176 4867908 0 -1
-0.18766412138938904 0.0059948875568807125 -0.2780449390411377 4999237 0 -1
-0.1876678168773651 0.00491286488249898 -0.2781773805618286 4801859 0 -1
-0.1876683235168457 0.004696528892964125 -0.2782035171985626 4670529 0 -1
-0.187669575214386 0.004480235744267702 -0.278230756521225 4670529 0 -1
-0.18767017126083374 0.004263951443135738 -0.2782570421695709 4670273 0 -1
-0.1876714676618576 0.0038314599078148603 -0.27830973267555237 4209978 0 -1
-0.1876753568649292 0.0027506768237799406 -0.2784424424171448 4341565 0 -1
-0.18767614662647247 0.00231852731667459 -0.2784944474697113 4473151 0 -1
-0.18767713010311127 0.0021024970337748528 -0.27852126955986023 4735809 0 -1
-0.18740494549274445 0.0016680692788213491 -0.27816805243492126 4802115 0 -1
-0.1874091923236847 0.0005900994292460382 -0.2783012092113495 4933701 0 -1
-0.18740913271903992 0.00015908149362076074 -0.2783518433570862 4802115 0 -1
-0.18741033971309662 -0.00005638801303575747 -0.27837899327278137 4736322 0 -1
-0.18740999698638916 -0.0004872487625107169 -0.278429239988327 5459789 0 -1
-0.1874135136604309 -0.00156396662350744 -0.2785613536834717 9535549 0 -1
-0.18741871416568756 -0.0022097346372902393 -0.27864521741867065 11244079 0 -1
-0.18742071092128754 -0.00242494884878397 -0.27867355942726135 8483648 0 -1
-0.1874174326658249 -0.0026400669012218714 -0.2786940634250641 6446156 0 -1
-0.18742138147354126 -0.00371554889716208 -0.27882686257362366 11375406 0 -1
-0.18742357194423676 -0.003930600360035896 -0.27885550260543823 12295721 0 -1
-0.18715152144432068 -0.004783411510288715 -0.2785521447658539 5394252 0 -1
-0.18715593218803406 -0.0058560981415212154 -0.2786855101585388 5854289 0 -1
-0.1871585249900818 -0.006070616189390421 -0.27871471643447876 5722959 0 -1
-0.18715544044971466 -0.006499303504824638 -0.2787608504295349 5262152 0 -1
-0.18715809285640717 -0.006713752634823322 -0.2787902057170868 5130823 0 -1
-0.18716870248317719 -0.008213966153562069 -0.27898359298706055 4604736 0 -1
-0.1871647983789444 -0.008642069064080715 -0.2790285646915436 4670273 0 -1
-0.1871679276227951 -0.008856313303112984 -0.2790586054325104 4604479 0 -1
-0.1871742308139801 -0.00928474497050047 -0.27911877632141113 5130823 0 -1
-0.18718017637729645 -0.010354937985539436 -0.27925461530685425 4538686 0 -1
-0.187175452709198 -0.010782434605062008 -0.2792983651161194 4735809 0 -1
-0.18717901408672333 -0.010996482335031033 -0.2793290913105011 4801858 0 -1
-0.18717388808727264 -0.011423773132264614 -0.2793722152709961 4999494 0 -1
-0.18717943131923676 -0.012492649257183075 -0.279507577419281 5459788 0 -1
-0.18719127774238586 -0.013134277425706387 -0.2796015739440918 5525838 0 -1
-0.1871853470802307 -0.013560935854911804 -0.27964353561401367 5722960 0 -1
-0.18692204356193542 -0.014820623211562634 -0.27940261363983154 6052181 0 -1
-0.18692892789840698 -0.015886086970567703 -0.27953997254371643 5986132 0 -1
-0.18692880868911743 -0.017375800758600235 -0.2797178626060486 5328459 0 -1
-0.18693368136882782 -0.017588963732123375 -0.27975061535835266 5394252 0 -1
-0.18692588806152344 -0.01801355555653572 -0.27978986501693726 5394252 0 -1
-0.18693293631076813 -0.019077086821198463 -0.2799277603626251 5262409 0 -1
-0.1869489550590515 -0.019716152921319008 -0.28002822399139404 4933444 0 -1
-0.18697209656238556 -0.022053932771086693 -0.28034359216690063 4275515 0 -1
-0.1869627684354782 -0.02247704565525055 -0.2803807258605957 4473150 0 -1
-0.18696822226047516 -0.024173445999622345 -0.28059354424476624 4736322 0 -1
-0.18671686947345734 -0.028577277436852455 -0.28075459599494934 5723217 0 -1
-0.18788324296474457 0.041731711477041245 -0.27462148666381836 4670272 0 -1
-0.18787315487861633 0.04128693416714668 -0.27465710043907166 4538687 0 -1
-0.18786819279193878 0.04106461629271507 -0.27467504143714905 4538687 0 -1
-0.18788789212703705 0.04062650725245476 -0.27475419640541077 4473150 0 -1
-0.18788282573223114 0.04040424898266792 -0.2747719883918762 4538943 0 -1
-0.1878778487443924 0.040182046592235565 -0.2747898995876312 4538943 0 -1
-0.1878729909658432 0.03995991125702858 -0.27480801939964294 4538943 0 -1
-0.18786808848381042 0.03973779082298279 -0.27482596039772034 4604479 0 -1
-0.18789198994636536 0.03952179104089737 -0.2748861610889435 4670529 0 -1
-0.18785861134529114 0.039293766021728516 -0.27486252784729004 4801858 0 -1
-0.18788227438926697 0.03907771036028862 -0.27492234110832214 4736322 0 -1
-0.18787741661071777 0.03885572776198387 -0.2749404311180115 4736322 0 -1
-0.18789592385292053 0.038417644798755646 -0.27501794695854187 5065031 0 -1
-0.18789105117321014 0.038195740431547165 -0.2750360369682312 5065287 0 -1
-0.1878863126039505 0.037973906844854355 -0.27505430579185486 5065544 0 -1
-0.18787714838981628 0.037530407309532166 -0.27509137988090515 5262666 0 -1
-0.18787245452404022 0.03730868175625801 -0.2751096785068512 5262666 0 -1
-0.1878948211669922 0.03709234669804573 -0.27516764402389526 5262666 0 -1
-0.18789026141166687 0.036870699375867844 -0.2751862406730652 5262665 0 -1
-0.18788565695285797 0.036649078130722046 -0.27520471811294556 5328202 0 -1
-0.18787673115730286 0.03620600700378418 -0.2752420902252197 5657167 0 -1
-0.1878722757101059 0.035984527319669724 -0.2752608060836792 5657167 0 -1
-0.18788497149944305 0.03532520681619644 -0.27535510063171387 5789010 0 -1
-0.18788060545921326 0.03510386124253273 -0.27537399530410767 5789266 0 -1
-0.18787644803524017 0.034882597625255585 -0.27539315819740295 5986131 0 -1
-0.18787221610546112 0.034661345183849335 -0.2754121720790863 6249046 0 -1
-0.18788859248161316 0.03422348201274872 -0.27548667788505554 5854289 0 -1
-0.18788443505764008 0.03400233015418053 -0.27550584077835083 5722703 0 -1
-0.18788029253482819 0.03378121927380562 -0.2755250334739685 5788753 0 -1
-0.18787607550621033 0.0335601270198822 -0.27554410696029663 5920338 0 -1
-0.18789193034172058 0.03312233090400696 -0.27561789751052856 5920338 0 -1
-0.18788789212703705 0.032901350408792496 -0.2756372094154358 5722960 0 -1
-0.18788380920886993 0.03268039971590042 -0.27565649151802063 5657167 0 -1
-0.18787987530231476 0.03245950862765312 -0.2756759822368622 5723217 0 -1
-0.1878911405801773 0.03180095925927162 -0.27576836943626404 5591374 0 -1
-0.1878872811794281 0.03158019855618477 -0.27578797936439514 5065287 0 -1
-0.18787600100040436 0.0309181809425354 -0.27584728598594666 5327944 0 -1
-0.18787238001823425 0.030697599053382874 -0.2758672535419464 5327945 0 -1
-0.1878904402256012 0.03048057109117508 -0.2759190499782562 5328201 0 -1
-0.1878867894411087 0.030260032042860985 -0.2759389877319336 5393995 0 -1
-0.18787963688373566 0.029819082468748093 -0.27597910165786743 4670272 0 -1
-0.18787622451782227 0.02959868498146534 -0.27599939703941345 4407357 0 -1
-0.1878935694694519 0.029381563887000084 -0.2760501205921173 4209979 0 -1
-0.18788643181324005 0.028940845280885696 -0.27609023451805115 4275514 0 -1
-0.18788295984268188 0.0287205558270216 -0.2761104702949524 4472893 0 -1
-0.18787969648838043 0.028500329703092575 -0.2761309742927551 4670529 0 -1
-0.18789632618427277 0.02828313037753105 -0.2761807143688202 4670529 0 -1
-0.18789303302764893 0.02806294523179531 -0.27620118856430054 4538943 0 -1
-0.18788954615592957 0.027842769399285316 -0.2762213945388794 4670272 0 -1
-0.1878862977027893 0.027622660622000694 -0.2762419581413269 4867907 0 -1
-0.18788307905197144 0.027402585372328758 -0.2762625217437744 4867907 0 -1
-0.18789897859096527 0.027185313403606415 -0.2763111889362335 4867651 0 -1
-0.18789255619049072 0.026745300740003586 -0.2763524055480957 4933701 0 -1
-0.18788942694664001 0.026525352150201797 -0.27637308835983276 4933702 0 -1
-0.18788644671440125 0.026305463165044785 -0.2763940691947937 4999238 0 -1
-0.18788345158100128 0.02608560398221016 -0.27641499042510986 4867652 0 -1
-0.18789850175380707 0.025868263095617294 -0.27646246552467346 4736065 0 -1
-0.18762046098709106 0.025391850620508194 -0.2761039137840271 4999237 0 -1
-0.1876174509525299 0.02517242357134819 -0.2761248052120209 4867652 0 -1
-0.18761466443538666 0.02495305985212326 -0.2761460244655609 4670530 0 -1
-0.18762588500976562 0.024516617879271507 -0.2762131094932556 6051668 0 -1
-0.1876230537891388 0.024297326803207397 -0.2762342691421509 5789009 0 -1
-0.1876203715801239 0.024078086018562317 -0.27625563740730286 5525582 0 -1
-0.18761757016181946 0.02385886013507843 -0.27627676725387573 5394252 0 -1
-0.18761499226093292 0.023639701306819916 -0.2762983441352844 5262666 0 -1
-0.18762847781181335 0.023422574624419212 -0.2763434946537018 5262667 0 -1
-0.1876257359981537 0.02320343814790249 -0.2763647139072418 5328459 0 -1
-0.18762317299842834 0.022984357550740242 -0.2763862907886505 5394252 0 -1
-0.1876308172941208 0.022329136729240417 -0.2764735221862793 5657167 0 -1
-0.18762823939323425 0.022110164165496826 -0.2764950394630432 5788753 0 -1
-0.18762576580047607 0.021891236305236816 -0.2765166759490967 5920339 0 -1
-0.18762336671352386 0.02167235128581524 -0.2765384614467621 5920339 0 -1
-0.18763308227062225 0.021236320957541466 -0.27660343050956726 5986132 0 -1
-0.18763066828250885 0.021017516031861305 -0.27662521600723267 5986132 0 -1
-0.18763524293899536 0.020144132897257805 -0.27673324942588806 5196872 0 -1
-0.18763086199760437 0.019706888124346733 -0.2767774760723114 5262410 0 -1
-0.1876288652420044 0.01948833093047142 -0.27679985761642456 5196359 0 -1
-0.18763752281665802 0.019052596762776375 -0.27686330676078796 5065287 0 -1
-0.18763543665409088 0.018834110349416733 -0.2768855690956116 5065288 0 -1
-0.18763341009616852 0.018615659326314926 -0.27690792083740234 4933701 0 -1
-0.1876358985900879 0.01752505823969841 -0.2770383059978485 4867908 0 -1
-0.18763430416584015 0.017306823283433914 -0.2770612835884094 4670529 0 -1
-0.18763090670108795 0.016870422288775444 -0.27710697054862976 4407100 0 -1
-0.18762941658496857 0.016652286052703857 -0.2771300971508026 4341307 0 -1
-0.18763835728168488 0.01643509231507778 -0.2771686613559723 4341564 0 -1
-0.1873607635498047 0.01575794443488121 -0.2768345773220062 4933701 0 -1
-0.1873675137758255 0.015323407016694546 -0.2768951952457428 4670529 0 -1
-0.18736620247364044 0.01510578766465187 -0.27691856026649475 5130822 0 -1
-0.1873648464679718 0.01488819345831871 -0.27694186568260193 5328201 0 -1
-0.18736356496810913 0.01467063557356596 -0.27696529030799866 5196872 0 -1
-0.1873624473810196 0.014453120529651642 -0.2769889831542969 5065286 0 -1
-0.1873665153980255 0.01358396653085947 -0.2770962715148926 4670529 0 -1
-0.18737226724624634 0.013149796053767204 -0.27715548872947693 4736066 0 -1
-0.18736940622329712 0.01249791868031025 -0.2772272229194641 4867908 0 -1
-0.18737173080444336 0.011195422150194645 -0.27738264203071594 5460045 0 -1
-0.18737708032131195 0.01097872108221054 -0.277415931224823 5460045 0 -1
-0.18737633526325226 0.010761682875454426 -0.2774401307106018 5460045 0 -1
-0.18737532198429108 0.010327715426683426 -0.2774893045425415 5460045 0 -1
-0.18737846612930298 0.009243562817573547 -0.27762067317962646 5854547 0 -1
-0.18738217651844025 0.008810190483927727 -0.27767688035964966 5920083 0 -1
-0.18738189339637756 0.008593440055847168 -0.27770179510116577 5722960 0 -1
-0.18738161027431488 0.008160032331943512 -0.2777520716190338 5657424 0 -1
-0.18738484382629395 0.007077130954712629 -0.2778836190700531 5262666 0 -1
-0.1873876452445984 0.0066441986709833145 -0.27793848514556885 5196360 0 -1
-0.18738776445388794 0.006427722983062267 -0.2779640257358551 4867652 0 -1
-0.18738822638988495 0.0059948572888970375 -0.2780154049396515 4933444 0 -1
-0.18739183247089386 0.0049132113344967365 -0.27814754843711853 4801859 0 -1
-0.18739230930805206 0.0046969507820904255 -0.27817362546920776 4604480 0 -1
-0.18739357590675354 0.004480733070522547 -0.27820083498954773 4604736 0 -1
-0.1873941421508789 0.004264524672180414 -0.2782270610332489 4604736 0 -1
-0.18712514638900757 0.002747755963355303 -0.2780049443244934 4341564 0 -1
-0.18712595105171204 0.002316390397027135 -0.2780568301677704 4407101 0 -1
-0.18712691962718964 0.002100751968100667 -0.27808356285095215 4538688 0 -1
-0.18712902069091797 0.001669549848884344 -0.27813735604286194 4999494 0 -1
-0.1871330440044403 0.0005919609102420509 -0.27827003598213196 4933958 0 -1
-0.18713290989398956 0.0001610961917322129 -0.2783205211162567 4736579 0 -1
-0.18713432550430298 -0.00005429665543488227 -0.2783479690551758 4670529 0 -1
-0.18713383376598358 -0.00048500398406758904 -0.27839788794517517 5657167 0 -1
-0.1871373951435089 -0.0015613386640325189 -0.27852994203567505 9469757 0 -1
-0.18713901937007904 -0.0017765394877642393 -0.278557687997818 11507506 0 -1
-0.18686869740486145 -0.0022036468144506216 -0.278205931186676 11244079 0 -1
-0.18714451789855957 -0.002422013320028782 -0.278641939163208 8417599 0 -1
-0.18714125454425812 -0.0026370547711849213 -0.27866244316101074 6314571 0 -1
-0.18714316189289093 -0.0028521406929939985 -0.2786906063556671 6051921 0 -1
-0.18714524805545807 -0.003712153760716319 -0.27879515290260315 11375406 0 -1
-0.1871473342180252 -0.003927126061171293 -0.2788236141204834 12361256 0 -1
-0.18687772750854492 -0.00435063149780035 -0.27847257256507874 8812347 0 -1
-0.1868753880262375 -0.004779628943651915 -0.27851974964141846 5262409 0 -1
-0.18687768280506134 -0.004994175396859646 -0.2785485088825226 5393995 0 -1
-0.18687982857227325 -0.005851930007338524 -0.27865302562713623 5985874 0 -1
-0.18688234686851501 -0.0060663684271276 -0.2786821126937866 5788495 0 -1
-0.18687927722930908 -0.00649490300565958 -0.278728187084198 5196615 0 -1
-0.186881884932518 -0.006709272973239422 -0.2787574231624603 5130823 0 -1
-0.18689264357089996 -0.008208952844142914 -0.27895087003707886 4802115 0 -1
-0.1868916004896164 -0.008851055055856705 -0.2790253758430481 4538687 0 -1
-0.1868981271982193 -0.009279342368245125 -0.27908578515052795 5196359 0 -1
-0.18690384924411774 -0.010349138639867306 -0.27922120690345764 4407100 0 -1
-0.1868990659713745 -0.010776477865874767 -0.27926480770111084 4735808 0 -1
-0.18690267205238342 -0.010990451090037823 -0.27929556369781494 4933444 0 -1
-0.18662385642528534 -0.011400867253541946 -0.27892956137657166 4999494 0 -1
-0.1866292953491211 -0.01246778666973114 -0.27906444668769836 5525581 0 -1
-0.186641126871109 -0.013108243234455585 -0.27915820479393005 5591631 0 -1
-0.18663521111011505 -0.013534121215343475 -0.2792000472545624 5723217 0 -1
-0.18664586544036865 -0.014813194051384926 -0.27936822175979614 5920339 0 -1
-0.18665270507335663 -0.01587826944887638 -0.2795054018497467 5854803 0 -1
-0.18665733933448792 -0.017580518499016762 -0.2797155976295471 5328202 0 -1
-0.18664966523647308 -0.01800496317446232 -0.2797549366950989 5196873 0 -1
-0.1866566687822342 -0.01906810700893402 -0.27989262342453003 5196616 0 -1
-0.18667267262935638 -0.01970694027841091 -0.2799929678440094 4999236 0 -1
-0.18669579923152924 -0.022043874487280846 -0.2803080379962921 4209978 0 -1
-0.1864190548658371 -0.024127302691340446 -0.280147522687912 4736322 0 -1
-0.186428964138031 -0.028984664008021355 -0.2807512581348419 5656910 0 -1
-0.18705444037914276 0.04203798994421959 -0.27373775839805603 4341564 0 -1
-0.18761056661605835 0.0417204312980175 -0.27460187673568726 4407357 0 -1
-0.1878741979598999 0.04155752435326576 -0.27501294016838074 4604736 0 -1
-0.18788398802280426 0.04067374765872955 -0.27512800693511963 4604736 0 -1
-0.18784959614276886 0.04044492915272713 -0.2751028537750244 4473150 0 -1
-0.18787400424480438 0.04022880643606186 -0.27516382932662964 4407357 0 -1
-0.1878642588853836 0.039784058928489685 -0.27519991993904114 4472894 0 -1
-0.1878882199525833 0.03956781327724457 -0.27526021003723145 4604480 0 -1
-0.18785487115383148 0.039339542388916016 -0.275236576795578 4736065 0 -1
-0.18787851929664612 0.03912324458360672 -0.2752964496612549 4802115 0 -1
-0.1878737211227417 0.03890101984143257 -0.275314599275589 4867908 0 -1
-0.18789225816726685 0.038462456315755844 -0.27539223432540894 4999495 0 -1
-0.18788743019104004 0.03824031352996826 -0.27541038393974304 5065288 0 -1
-0.18760383129119873 0.037520281970500946 -0.2750702202320099 5262409 0 -1
-0.1875993013381958 0.03729866445064545 -0.2750887870788574 5328459 0 -1
-0.18762165307998657 0.03708240017294884 -0.2751467525959015 5459788 0 -1
-0.18761692941188812 0.036860790103673935 -0.27516505122184753 5393995 0 -1
-0.1876124143600464 0.036639247089624405 -0.2751835882663727 5393995 0 -1
-0.18760335445404053 0.03619628772139549 -0.27522072196006775 5460045 0 -1
-0.18759886920452118 0.03597487136721611 -0.27523934841156006 5591631 0 -1
-0.18759457767009735 0.0357535295188427 -0.27525827288627625 5788754 0 -1
-0.18761147558689117 0.03531574830412865 -0.2753334939479828 5986388 0 -1
-0.187607079744339 0.03509446978569031 -0.27535226941108704 5920596 0 -1
-0.18760281801223755 0.03487324342131615 -0.2753712236881256 5920595 0 -1
-0.1875985562801361 0.03465205803513527 -0.2753901779651642 6117461 0 -1
-0.18761485815048218 0.0342143289744854 -0.27546456456184387 5788753 0 -1
-0.18761077523231506 0.03399325907230377 -0.2754838168621063 5657167 0 -1
-0.18760651350021362 0.033772192895412445 -0.2755027711391449 5657167 0 -1
-0.1876140832901001 0.032892610877752304 -0.2756148874759674 5525581 0 -1
-0.1876099705696106 0.032671719789505005 -0.2756340503692627 5460045 0 -1
-0.18760602176189423 0.03245089203119278 -0.2756534814834595 5591374 0 -1
-0.187598317861557 0.032009392976760864 -0.2756927013397217 5657167 0 -1
-0.1876172423362732 0.03179255127906799 -0.2757457494735718 5459788 0 -1
-0.1876133233308792 0.03157184645533562 -0.27576521039009094 5065287 0 -1
-0.18760572373867035 0.03113059140741825 -0.2758045792579651 5262409 0 -1
-0.18760186433792114 0.030910009518265724 -0.2758241593837738 5328202 0 -1
-0.18759840726852417 0.030689526349306107 -0.2758443355560303 5262409 0 -1
-0.18761642277240753 0.030472565442323685 -0.2758961021900177 5196616 0 -1
-0.18761266767978668 0.03025207482278347 -0.27591580152511597 5130823 0 -1
-0.1876053661108017 0.02981124259531498 -0.2759556174278259 4670529 0 -1
-0.18762284517288208 0.029594210907816887 -0.2760066092014313 4604737 0 -1
-0.18761935830116272 0.029373884201049805 -0.27602675557136536 4736322 0 -1
-0.18761226534843445 0.028933310881257057 -0.2760668694972992 4670272 0 -1
-0.18733766674995422 0.028671592473983765 -0.2756880521774292 4736065 0 -1
-0.18733422458171844 0.02845172770321369 -0.27570822834968567 4802115 0 -1
-0.1873309165239334 0.028231916949152946 -0.27572858333587646 4736322 0 -1
-0.18734733760356903 0.02801509201526642 -0.27577802538871765 4604736 0 -1
-0.1876152604818344 0.02783556655049324 -0.2761976718902588 4670529 0 -1
-0.18761208653450012 0.027615539729595184 -0.2762182950973511 4867651 0 -1
-0.18760861456394196 0.027395501732826233 -0.27623847126960754 4867651 0 -1
-0.1873340606689453 0.02713623270392418 -0.2758595049381256 4801858 0 -1
-0.18734656274318695 0.02669973485171795 -0.2759283781051636 4801858 0 -1
-0.1876118779182434 0.026298722252249718 -0.27636975049972534 4933445 0 -1
-0.18733716011047363 0.026041166856884956 -0.2759903371334076 4999238 0 -1
-0.1873490959405899 0.02560477703809738 -0.27605846524238586 5065031 0 -1
-0.18734604120254517 0.025385376065969467 -0.2760791778564453 5065031 0 -1
-0.187343031167984 0.025166019797325134 -0.2761000394821167 5065286 0 -1
-0.18735137581825256 0.024510422721505165 -0.2761881649494171 6117718 0 -1
-0.18734854459762573 0.024291198700666428 -0.2762092649936676 5920339 0 -1
-0.18734583258628845 0.02407202683389187 -0.2762305438518524 5591888 0 -1
-0.18734298646450043 0.023852868005633354 -0.2762516140937805 5460045 0 -1
-0.1873404085636139 0.02363377995789051 -0.27627313137054443 5262923 0 -1
-0.18735386431217194 0.023416725918650627 -0.276318222284317 5328459 0 -1
-0.18733534216880798 0.02319570817053318 -0.27631619572639465 5393995 0 -1
-0.18734851479530334 0.02297864854335785 -0.2763609290122986 5525838 0 -1
-0.1873561143875122 0.022323640063405037 -0.27644801139831543 5854803 0 -1
-0.1873534917831421 0.02210473269224167 -0.2764693796634674 5854546 0 -1
-0.18735098838806152 0.02188587561249733 -0.2764910161495209 5788753 0 -1
-0.18734857439994812 0.021667063236236572 -0.2765127420425415 5789009 0 -1
-0.18735821545124054 0.02123117446899414 -0.27657759189605713 6051925 0 -1
-0.18735584616661072 0.02101244404911995 -0.27659937739372253 6249303 0 -1
-0.18735358119010925 0.020793752744793892 -0.2766213119029999 6117461 0 -1
-0.18736031651496887 0.020139344036579132 -0.27670717239379883 5328459 0 -1
-0.1873558759689331 0.019702235236763954 -0.27675122022628784 5393739 0 -1
-0.18735386431217194 0.019483748823404312 -0.2767735421657562 5130823 0 -1
-0.18736249208450317 0.019048158079385757 -0.27683690190315247 4999238 0 -1
-0.1873583197593689 0.01861136592924595 -0.2768813967704773 4802116 0 -1
-0.1873607039451599 0.017521124333143234 -0.2770114839076996 4604737 0 -1
-0.1873590648174286 0.01730295829474926 -0.2770344018936157 4604737 0 -1
-0.18735575675964355 0.016866708174347878 -0.27708011865615845 4407358 0 -1
-0.1873541623353958 0.016648637130856514 -0.27710309624671936 4341564 0 -1
-0.18709030747413635 0.016407594084739685 -0.27673810720443726 4407357 0 -1
-0.18708565831184387 0.0157545767724514 -0.27680709958076477 4999237 0 -1
-0.1870923936367035 0.015320183709263802 -0.2768676280975342 4867651 0 -1
-0.1870909482240677 0.01510262954980135 -0.2768908143043518 4999237 0 -1
-0.18708965182304382 0.014885115437209606 -0.27691417932510376 5065286 0 -1
-0.187097430229187 0.014668342657387257 -0.27695101499557495 5196872 0 -1
-0.18708713352680206 0.01445018034428358 -0.2769610285758972 5196872 0 -1
-0.1870911419391632 0.013581322506070137 -0.27706819772720337 4736323 0 -1
-0.18709702789783478 0.013147309422492981 -0.2771274745464325 4999494 0 -1
-0.18709401786327362 0.012495649978518486 -0.2771989703178406 5196873 0 -1
-0.18709620833396912 0.011193592101335526 -0.27735400199890137 5591374 0 -1
-0.1871015876531601 0.01097696740180254 -0.2773872911930084 5591631 0 -1
-0.18710094690322876 0.010760009288787842 -0.27741163969039917 5657167 0 -1
-0.18709976971149445 0.010326184332370758 -0.277460515499115 5788753 0 -1
-0.1870993822813034 0.01010932493954897 -0.27748528122901917 5722960 0 -1
-0.18710283935070038 0.009242404252290726 -0.27759167551994324 5722961 0 -1
-0.18710242211818695 0.008808989077806473 -0.2776416540145874 5788753 0 -1
-0.18710629642009735 0.008592508733272552 -0.27767273783683777 5657167 0 -1
-0.18710583448410034 0.008159244433045387 -0.27772268652915955 5591631 0 -1
-0.18710900843143463 0.007293198723345995 -0.2778286933898926 5196874 0 -1
-0.18683549761772156 0.007066374644637108 -0.2774478495121002 5196617 0 -1
-0.18683819472789764 0.006634222809225321 -0.2775024473667145 4999237 0 -1
-0.1868382841348648 0.006418138276785612 -0.2775278687477112 4801859 0 -1
-0.1868387758731842 0.0059860581532120705 -0.2775791585445404 4867651 0 -1
-0.18684205412864685 0.0049063642509281635 -0.277710497379303 4736322 0 -1
-0.1868426352739334 0.004690498113632202 -0.2777366638183594 4670272 0 -1
-0.1868438422679901 0.0044746724888682365 -0.2777637243270874 4538943 0 -1
-0.1868443787097931 0.004258854314684868 -0.277789831161499 4473150 0 -1
-0.1868455857038498 0.0038272978272289038 -0.2778422236442566 4144186 0 -1
-0.18684640526771545 0.0036115606781095266 -0.27786874771118164 4275771 0 -1
-0.1868492215871811 0.002748852828517556 -0.2779741585254669 4341565 0 -1
-0.1868501603603363 0.002317642094567418 -0.27802613377571106 4275516 0 -1
-0.186850905418396 0.0021020774729549885 -0.27805253863334656 4341565 0 -1
-0.18685311079025269 0.0016710294876247644 -0.2781064510345459 4933701 0 -1
-0.1868571788072586 0.0005938232061453164 -0.27823901176452637 4999494 0 -1
-0.18685704469680786 0.00016311148647218943 -0.27828946709632874 4802115 0 -1
-0.1868584156036377 -0.000052204828534740955 -0.27831676602363586 4736322 0 -1
-0.18685783445835114 -0.0004827588563784957 -0.2783665657043457 5394252 0 -1
-0.18686127662658691 -0.001558709074743092 -0.2784982919692993 9141052 0 -1
-0.18659457564353943 -0.002415531547740102 -0.2782019078731537 8549185 0 -1
-0.1868668794631958 -0.002849048003554344 -0.27865856885910034 6051920 0 -1
-0.18686909973621368 -0.003708754200488329 -0.27876314520835876 11375662 0 -1
-0.18660171329975128 -0.004347000736743212 -0.2784401774406433 8812346 0 -1
-0.18659935891628265 -0.00477584358304739 -0.27848726511001587 5131080 0 -1
-0.1866016387939453 -0.004990312736481428 -0.27851593494415283 5130823 0 -1
-0.18660378456115723 -0.0058477576822042465 -0.27862033247947693 5657166 0 -1
-0.1866062432527542 -0.006062117405235767 -0.27864930033683777 5525580 0 -1
-0.18660317361354828 -0.0064904959872365 -0.27869534492492676 5130823 0 -1
-0.18660575151443481 -0.006704788189381361 -0.2787244915962219 5130823 0 -1
-0.18661107122898102 -0.007133317179977894 -0.27878308296203613 4867651 0 -1
-0.18634185194969177 -0.00883282907307148 -0.2785831093788147 4604480 0 -1
-0.18634836375713348 -0.009260335005819798 -0.278643399477005 4933188 0 -1
-0.18635407090187073 -0.010328175500035286 -0.27877846360206604 4604479 0 -1
-0.18635287880897522 -0.010968313552439213 -0.27885255217552185 5130823 0 -1
-0.18634770810604095 -0.011394667439162731 -0.27889543771743774 4999494 0 -1
-0.18635320663452148 -0.012461202219128609 -0.2790302634239197 5393996 0 -1
-0.1863650530576706 -0.013101428747177124 -0.2791239619255066 5328459 0 -1
-0.18635912239551544 -0.013527150265872478 -0.27916571497917175 5657424 0 -1
-0.18636973202228546 -0.014805753715336323 -0.27933362126350403 5723217 0 -1
-0.18636302649974823 -0.015230930410325527 -0.27937427163124084 5789010 0 -1
-0.18637651205062866 -0.015870437026023865 -0.2794705927371979 5854803 0 -1
-0.18638119101524353 -0.017572071403265 -0.2796805799007416 5328459 0 -1
-0.18637339770793915 -0.017996350303292274 -0.27971965074539185 5328458 0 -1
-0.1863965094089508 -0.019697722047567368 -0.27995765209198 4933700 0 -1
-0.18613743782043457 -0.022423740476369858 -0.2798989713191986 4341565 0 -1
-0.18614298105239868 -0.02411644160747528 -0.2801111042499542 4867907 0 -1
-0.1861327737569809 -0.024537811055779457 -0.28014668822288513 4999494 0 -1
-0.18704988062381744 0.04208671674132347 -0.27410969138145447 4078392 0 -1
-0.18706993758678436 0.0416494682431221 -0.274189293384552 4209978 0 -1
-0.18706464767456055 0.04142744839191437 -0.27420660853385925 4604737 0 -1
-0.1870594620704651 0.041205499321222305 -0.27422410249710083 4670273 0 -1
-0.18705438077449799 0.04098360612988472 -0.27424171566963196 4604993 0 -1
-0.18707385659217834 0.04054636135697365 -0.27432048320770264 4670785 0 -1
-0.18703949451446533 0.040318235754966736 -0.2742951512336731 4407614 0 -1
-0.18706375360488892 0.04010278731584549 -0.27435582876205444 4210235 0 -1
-0.1870488077402115 0.03943776339292526 -0.2744092345237732 4538687 0 -1
-0.18731267750263214 0.03927253186702728 -0.2748214602470398 4670529 0 -1
-0.1873362958431244 0.03905661776661873 -0.2748812735080719 4867908 0 -1
-0.18733137845993042 0.03883475810289383 -0.2748992145061493 4999494 0 -1
-0.18732182681560516 0.03839121386408806 -0.2749354839324951 5065287 0 -1
-0.1873171478509903 0.03816951811313629 -0.27495378255844116 5131080 0 -1
-0.18734005093574524 0.037953440099954605 -0.2750125527381897 5196873 0 -1
-0.1873306781053543 0.03751016780734062 -0.2750491201877594 5196873 0 -1
-0.18732601404190063 0.037288591265678406 -0.27506744861602783 5394252 0 -1
-0.18732154369354248 0.037067096680402756 -0.27508604526519775 5591374 0 -1
-0.18734371662139893 0.03685087338089943 -0.2751438021659851 5525581 0 -1
-0.1873389482498169 0.03662935644388199 -0.2751619517803192 5460045 0 -1
-0.18733003735542297 0.03618656098842621 -0.2751992642879486 5394252 0 -1
-0.18732550740242004 0.0359652042388916 -0.27521777153015137 5591632 0 -1
-0.18732117116451263 0.035743921995162964 -0.275236576795578 5789267 0 -1
-0.18733806908130646 0.03530627861618996 -0.27531176805496216 6118231 0 -1
-0.1873336285352707 0.03508505970239639 -0.27533045411109924 5986389 0 -1
-0.18732929229736328 0.03486389294266701 -0.2753492593765259 5920596 0 -1
-0.18732503056526184 0.0346427783370018 -0.27536818385124207 5920596 0 -1
-0.18734128773212433 0.03420518338680267 -0.275442510843277 5722960 0 -1
-0.18733716011047363 0.03398417681455612 -0.2754616439342499 5591374 0 -1
-0.1873328536748886 0.03376316651701927 -0.2754804790019989 5525837 0 -1
-0.18732872605323792 0.03354222699999809 -0.2754996120929718 5460045 0 -1
-0.18734446167945862 0.033104702830314636 -0.275573194026947 5459788 0 -1
-0.18734019994735718 0.032883819192647934 -0.2755921185016632 5328202 0 -1
-0.18733623623847961 0.03266302868723869 -0.2756114900112152 5328202 0 -1
-0.18733225762844086 0.03244227170944214 -0.2756308913230896 5459788 0 -1
-0.18732447922229767 0.032000891864299774 -0.2756698727607727 5459788 0 -1
-0.18734337389469147 0.031784120947122574 -0.2757229208946228 5262666 0 -1
-0.1873394101858139 0.03156348317861557 -0.2757422924041748 4999750 0 -1
-0.18733176589012146 0.0311223566532135 -0.2757814824581146 5262666 0 -1
-0.18732787668704987 0.030901839956641197 -0.27580103278160095 5328458 0 -1
-0.1873243749141693 0.030681416392326355 -0.27582108974456787 5196872 0 -1
-0.18734240531921387 0.0304645337164402 -0.2758728861808777 5065030 0 -1
-0.18733862042427063 0.030244112014770508 -0.27589255571365356 4933443 0 -1
-0.18705692887306213 0.02954036556184292 -0.27555328607559204 4867908 0 -1
-0.18706707656383514 0.028883904218673706 -0.27564388513565063 4999494 0 -1
-0.18706348538398743 0.028664052486419678 -0.2756637930870056 4933701 0 -1
-0.18706010282039642 0.02844426967203617 -0.27568402886390686 4933445 0 -1
-0.18705667555332184 0.028224511072039604 -0.27570420503616333 4802115 0 -1
-0.18707311153411865 0.028007760643959045 -0.2757536470890045 4670529 0 -1
-0.18706971406936646 0.027788056060671806 -0.2757738530635834 4736065 0 -1
-0.18706634640693665 0.027568388730287552 -0.275794118642807 4867651 0 -1
-0.1870630383491516 0.02734876424074173 -0.2758144736289978 4867651 0 -1
-0.1870599091053009 0.027129195630550385 -0.2758350670337677 4801858 0 -1
-0.187072291970253 0.0266928281635046 -0.2759037911891937 4604736 0 -1
-0.18706904351711273 0.026473328471183777 -0.2759242355823517 4736322 0 -1
-0.1870659738779068 0.02625388279557228 -0.27594494819641113 4933445 0 -1
-0.18706288933753967 0.02603447064757347 -0.2759656012058258 5130824 0 -1
-0.18705986440181732 0.025815105065703392 -0.2759864032268524 5328203 0 -1
-0.187074676156044 0.025598211213946342 -0.276033490896225 5262410 0 -1
-0.18707171082496643 0.025378897786140442 -0.27605438232421875 5196616 0 -1
-0.18706873059272766 0.02515961229801178 -0.27607521414756775 5262665 0 -1
-0.18707701563835144 0.024504223838448524 -0.27616316080093384 6446940 0 -1
-0.18707410991191864 0.02428506314754486 -0.2761841118335724 6315354 0 -1
-0.18707124888896942 0.02406594529747963 -0.2762051820755005 6052439 0 -1
-0.18706846237182617 0.02384686842560768 -0.27622631192207336 5723217 0 -1
-0.18706588447093964 0.02362784929573536 -0.2762477397918701 5394252 0 -1
-0.1870792955160141 0.023410864174365997 -0.2762928009033203 5394252 0 -1
-0.18706060945987701 0.02318989485502243 -0.2762904465198517 5459788 0 -1
-0.1870737373828888 0.02297290414571762 -0.27633512020111084 5657167 0 -1
-0.18708135187625885 0.022318117320537567 -0.2764221727848053 6117975 0 -1
-0.18706382811069489 0.022097526118159294 -0.2764214873313904 5854803 0 -1
-0.18707625567913055 0.021880507469177246 -0.27646514773368835 5657424 0 -1
-0.18707384169101715 0.02166176401078701 -0.2764868438243866 5657424 0 -1
-0.18681146204471588 0.02119515649974346 -0.27614954113960266 6117461 0 -1
-0.1868090182542801 0.020976809784770012 -0.27617114782333374 6446426 0 -1
-0.18707865476608276 0.020788729190826416 -0.2765950560569763 6249303 0 -1
-0.18681327998638153 0.02010525017976761 -0.27627840638160706 5525837 0 -1
-0.18706993758678436 0.01991462893784046 -0.2766832411289215 5525580 0 -1
-0.1868087202310562 0.019668910652399063 -0.2763221561908722 5459787 0 -1
-0.1870788186788559 0.01947914995253086 -0.276746928691864 5130823 0 -1
-0.18681518733501434 0.019015995785593987 -0.2764074504375458 4867908 0 -1
-0.18680064380168915 0.01879671774804592 -0.27641117572784424 4933701 0 -1
-0.1868109256029129 0.01857997290790081 -0.27645164728164673 4736578 0 -1
-0.18680520355701447 0.017926236614584923 -0.27651888132095337 4604736 0 -1
-0.18681304156780243 0.01749165914952755 -0.2765809893608093 4407358 0 -1
-0.18681137263774872 0.017273882403969765 -0.2766037881374359 4604480 0 -1
-0.18680788576602936 0.016838401556015015 -0.2766491174697876 4473151 0 -1
-0.18680629134178162 0.01662071980535984 -0.27667203545570374 4341821 0 -1
-0.18681515753269196 0.016403988003730774 -0.2767104208469391 4473151 0 -1
-0.18681052327156067 0.015751194208860397 -0.2767793536186218 5065029 0 -1
-0.18680784106254578 0.015316179022192955 -0.2768259048461914 5065029 0 -1
-0.18681585788726807 0.015099475160241127 -0.27686306834220886 4867907 0 -1
-0.18681436777114868 0.014882019720971584 -0.27688610553741455 4867908 0 -1
-0.18681316077709198 0.01466461643576622 -0.27690958976745605 5196615 0 -1
-0.18681590259075165 0.013578677549958229 -0.2770399749279022 4867652 0 -1
-0.1868216097354889 0.013144800439476967 -0.27709898352622986 5262666 0 -1
-0.18681859970092773 0.012493365444242954 -0.277170330286026 5525581 0 -1
-0.1868213713169098 0.011408688500523567 -0.2773008644580841 5591117 0 -1
-0.18682609498500824 0.010975206270813942 -0.27735844254493713 5723216 0 -1
-0.18655233085155487 0.010742596350610256 -0.2769772410392761 5788753 0 -1
-0.18655118346214294 0.010309556499123573 -0.27702605724334717 6051668 0 -1
-0.18655405938625336 0.00922772753983736 -0.2771565616130829 5525839 0 -1
-0.18655766546726227 0.008795286528766155 -0.2772124111652374 5722960 0 -1
-0.18655698001384735 0.008146525360643864 -0.27728715538978577 5525838 0 -1
-0.18655994534492493 0.007065953221172094 -0.2774178683757782 5065287 0 -1
-0.18656259775161743 0.006633951794356108 -0.2774723172187805 4802115 0 -1
-0.1865626722574234 0.00641794316470623 -0.27749767899513245 4736322 0 -1
-0.1865631341934204 0.005986013449728489 -0.2775489091873169 4801859 0 -1
-0.18656636774539948 0.004906699061393738 -0.27768003940582275 4736322 0 -1
-0.18656688928604126 0.004690908826887608 -0.2777060866355896 4670529 0 -1
-0.18656811118125916 0.004475159104913473 -0.27773317694664 4538943 0 -1
-0.18656864762306213 0.00425941776484251 -0.27775922417640686 4341564 0 -1
-0.18656978011131287 0.003828012151643634 -0.2778114676475525 4209978 0 -1
-0.18657338619232178 0.0027499489951878786 -0.27794313430786133 4407101 0 -1
-0.18657423555850983 0.0023188902996480465 -0.2779949903488159 4144186 0 -1
-0.1865750551223755 0.0021034032106399536 -0.2780214548110962 4144186 0 -1
-0.1865772306919098 0.0016725081950426102 -0.27807527780532837 4933445 0 -1
-0.18658120930194855 0.0005956852110102773 -0.27820760011672974 4999495 0 -1
-0.18630747497081757 0.00016488481196574867 -0.2778499126434326 4802115 0 -1
-0.1863088309764862 -0.000050039030611515045 -0.27787715196609497 4802115 0 -1
-0.1863083839416504 -0.0004798086010850966 -0.277927041053772 5196873 0 -1
-0.18631167709827423 -0.001553796697407961 -0.27805817127227783 8878139 0 -1
-0.18631334602832794 -0.001768528833054006 -0.27808594703674316 11047220 0 -1
-0.18631674349308014 -0.0021979259327054024 -0.27814149856567383 11309872 0 -1
-0.18631871044635773 -0.0024125941563397646 -0.2781696915626526 8680771 0 -1
-0.18631543219089508 -0.0026271662209182978 -0.2781900465488434 6708816 0 -1
-0.1863172948360443 -0.002841782523319125 -0.2782180905342102 6051663 0 -1
-0.18631915748119354 -0.0036999150179326534 -0.2783219516277313 11375661 0 -1
-0.18632131814956665 -0.003914419561624527 -0.2783504128456116 12098600 0 -1
-0.18632574379444122 -0.004343366716057062 -0.2784075438976288 8746554 0 -1
-0.1863233745098114 -0.00477205403149128 -0.2784545421600342 5065286 0 -1
-0.18632563948631287 -0.00498644495382905 -0.27848315238952637 4933444 0 -1
-0.18633022904396057 -0.006057863589376211 -0.27861639857292175 5262666 0 -1
-0.18605376780033112 -0.0064765713177621365 -0.2782534956932068 4999494 0 -1
-0.18605633080005646 -0.0066904714331030846 -0.2782825827598572 5065287 0 -1
-0.18606168031692505 -0.0071182167157530785 -0.27834102511405945 4736323 0 -1
-0.18606694042682648 -0.008186864666640759 -0.27847516536712646 4933444 0 -1
-0.18606586754322052 -0.00882756058126688 -0.27854931354522705 4670529 0 -1
-0.18606658279895782 -0.010321724228560925 -0.2787272036075592 4736322 0 -1
-0.18608155846595764 -0.010535910725593567 -0.2787749171257019 4867908 0 -1
-0.18607674539089203 -0.010962258093059063 -0.2788182199001312 5328459 0 -1
-0.18607157468795776 -0.011388457380235195 -0.27886107563972473 4999494 0 -1
-0.18607714772224426 -0.012454608455300331 -0.2789958119392395 5262666 0 -1
-0.18608896434307098 -0.013094599358737469 -0.27908939123153687 5131080 0 -1
-0.18608300387859344 -0.013520164415240288 -0.27913105487823486 5591631 0 -1
-0.1860935091972351 -0.014798294752836227 -0.27929866313934326 5591374 0 -1
-0.18608687818050385 -0.015223321504890919 -0.27933937311172485 5723474 0 -1
-0.1860913187265396 -0.015436425805091858 -0.27937132120132446 5723473 0 -1
-0.18610043823719025 -0.01586260087788105 -0.2794356644153595 5854803 0 -1
-0.18583208322525024 -0.01753784902393818 -0.2792351543903351 5328715 0 -1
-0.18582448363304138 -0.01796136610209942 -0.2792743742465973 5394252 0 -1
