VERSION .7
FIELDS x y z rgb label object
SIZE 4 4 4 4 4 4
TYPE F F F I I I
COUNT 1 1 1 1 1 1
WIDTH 637
HEIGHT 1
POINTS 637
VIEWPOINT 0 0 0 1 0 0 0
DATA ascii
-0.1456746757030487 0.006792889442294836 -0.2573340833187103 5262666 0 -1
-0.14567428827285767 0.00640334514901042 -0.25737428665161133 5328202 0 -1
-0.14567255973815918 0.006208550650626421 -0.25739172101020813 5459788 0 -1
-0.14567206799983978 0.005819176323711872 -0.2574317753314972 5393738 0 -1
-0.14543573558330536 0.005615415517240763 -0.2570345401763916 5065030 0 -1
-0.14543436467647552 0.005421072710305452 -0.25705257058143616 4736065 0 -1
-0.1454320102930069 0.004838291555643082 -0.257109671831131 4999237 0 -1
-0.14566536247730255 0.004651566501706839 -0.2575426697731018 4867907 0 -1
-0.1456643044948578 0.0044570742174983025 -0.25756126642227173 4670529 0 -1
-0.14566437900066376 0.004262644797563553 -0.25758183002471924 4670529 0 -1
-0.14542832970619202 0.004061649087816477 -0.25718486309051514 4670529 0 -1
-0.14566095173358917 0.0036794303450733423 -0.2576371431350708 4473150 0 -1
-0.14542533457279205 0.0034794763196259737 -0.25724080204963684 4407357 0 -1
-0.145657017827034 0.0027080511208623648 -0.25773245096206665 4473150 0 -1
-0.14565610885620117 0.002513861283659935 -0.2577512860298157 4472893 0 -1
-0.14565488696098328 0.002125581493601203 -0.2577899992465973 4735809 0 -1
-0.14541877806186676 0.0019283619476482272 -0.2573924958705902 4867652 0 -1
-0.1456529051065445 0.001737408572807908 -0.25782737135887146 5065031 0 -1
-0.14565254747867584 0.0015433740336447954 -0.2578471601009369 5065030 0 -1
-0.14564743638038635 0.0005736132734455168 -0.2579403221607208 5196616 0 -1
-0.14541229605674744 0.000379140954464674 -0.25754430890083313 5131079 0 -1
-0.1456441879272461 -0.00039540091529488564 -0.258036732673645 5722960 0 -1
-0.14564424753189087 -0.00058911950327456 -0.25805726647377014 5854801 0 -1
-0.14563815295696259 -0.001557237934321165 -0.25814855098724365 11967535 0 -1
-0.1456383913755417 -0.0017507878364995122 -0.25816941261291504 11375922 0 -1
-0.14563922584056854 -0.0021378130186349154 -0.2582117021083832 6774867 0 -1
-0.14540500938892365 -0.0023275308776646852 -0.2578168511390686 6314836 0 -1
-0.14540088176727295 -0.0025205877609550953 -0.2578299045562744 6578002 0 -1
-0.1454015076160431 -0.002713695866987109 -0.25785139203071594 8286791 0 -1
-0.14563502371311188 -0.0036846823059022427 -0.25836750864982605 7957825 0 -1
-0.1456320881843567 -0.004264249000698328 -0.2584235370159149 5196874 0 -1
-0.14562775194644928 -0.004650402348488569 -0.25845661759376526 5065287 0 -1
-0.1453939825296402 -0.004835727624595165 -0.25806212425231934 4999494 0 -1
-0.14539362490177155 -0.005799258127808571 -0.2581632435321808 5131080 0 -1
-0.14539042115211487 -0.006376920733600855 -0.25821858644485474 4802115 0 -1
-0.14538542926311493 -0.006761747878044844 -0.2582503855228424 4867907 0 -1
-0.14538727700710297 -0.006954318843781948 -0.25827401876449585 4867908 0 -1
-0.1453879028558731 -0.007916376926004887 -0.2583768367767334 4801859 0 -1
-0.14538446068763733 -0.008493072353303432 -0.25843170285224915 4801858 0 -1
-0.14537879824638367 -0.008877179585397243 -0.25846225023269653 4933700 0 -1
-0.14538098871707916 -0.00906949769705534 -0.25848647952079773 4802115 0 -1
-0.14538274705410004 -0.010030128993093967 -0.2585911452770233 4933445 0 -1
-0.14537665247917175 -0.010413716547191143 -0.258620947599411 4867652 0 -1
-0.14537930488586426 -0.010605874471366405 -0.2586459815502167 4802115 0 -1
-0.1453728824853897 -0.010989241302013397 -0.25867512822151184 4802115 0 -1
-0.14537572860717773 -0.011181337758898735 -0.2587004601955414 4867908 0 -1
-0.14536510407924652 -0.012139464728534222 -0.2587830424308777 5131080 0 -1
-0.14537492394447327 -0.012715370394289494 -0.25886139273643494 5131080 0 -1
-0.14536787569522858 -0.013097991235554218 -0.258889377117157 4868164 0 -1
-0.14537136256694794 -0.013289889320731163 -0.25891590118408203 5131336 0 -1
-0.1453600823879242 -0.01424630731344223 -0.2589971423149109 5722960 0 -1
-0.14537160098552704 -0.014821631833910942 -0.2590784728527069 5722703 0 -1
-0.14536376297473907 -0.015203475952148438 -0.25910499691963196 5657167 0 -1
-0.14536799490451813 -0.015395206399261951 -0.2591328024864197 5722703 0 -1
-0.1453602910041809 -0.01654149778187275 -0.2592405378818512 5262666 0 -1
-0.14536936581134796 -0.01692471094429493 -0.2592971920967102 5262409 0 -1
-0.14535309374332428 -0.018450306728482246 -0.25943005084991455 4604737 0 -1
-0.1453489512205124 -0.019022135064005852 -0.25948330760002136 4933444 0 -1
-0.14536446332931519 -0.019596340134739876 -0.2595716714859009 4736065 0 -1
-0.1453569382429123 -0.020738903433084488 -0.25967949628829956 4999237 0 -1
-0.14534731209278107 -0.02111847884953022 -0.2597027122974396 4933444 0 -1
-0.14536473155021667 -0.02169230952858925 -0.2597944438457489 4801859 0 -1
-0.1453571766614914 -0.022832993417978287 -0.25990211963653564 4999494 0 -1
-0.14534704387187958 -0.0232117660343647 -0.25992438197135925 5196873 0 -1
-0.14534300565719604 -0.02378144860267639 -0.2599777579307556 5262409 0 -1
-0.14535878598690033 -0.024924080818891525 -0.26012709736824036 5723217 0 -1
-0.14535503089427948 -0.025493083521723747 -0.2601809501647949 5196873 0 -1
-0.1453583836555481 -0.027580328285694122 -0.2604089379310608 4999494 0 -1
-0.14535456895828247 -0.028148101642727852 -0.2604626715183258 5065287 0 -1
-0.14544348418712616 0.04390141740441322 -0.2535034120082855 4670530 0 -1
-0.1454339176416397 0.0436985157430172 -0.25350674986839294 4670530 0 -1
-0.14544948935508728 0.043303221464157104 -0.2535739839076996 4802115 0 -1
-0.14544005692005157 0.04310047626495361 -0.2535775899887085 4933702 0 -1
-0.14543063938617706 0.042897794395685196 -0.2535811960697174 5065031 0 -1
-0.1454271823167801 0.042097508907318115 -0.2536553740501404 5591373 0 -1
-0.14564663171768188 0.04196098819375038 -0.25405824184417725 5525581 0 -1
-0.14567063748836517 0.041767846792936325 -0.25412023067474365 5328202 0 -1
-0.1456613838672638 0.0415651760995388 -0.25412416458129883 5065286 0 -1
-0.1456431746482849 0.041160088032484055 -0.25413262844085693 5262665 0 -1
-0.1456342190504074 0.04095765948295593 -0.2541370987892151 5131080 0 -1
-0.14565759897232056 0.04076433926820755 -0.25419801473617554 4933701 0 -1
-0.14563965797424316 0.040359653532505035 -0.25420695543289185 4802115 0 -1
-0.1456308513879776 0.040157437324523926 -0.2542117238044739 4933701 0 -1
-0.14564482867717743 0.03976178541779518 -0.2542763948440552 4867651 0 -1
-0.14563590288162231 0.03955964744091034 -0.2542809247970581 4604480 0 -1
-0.14564964175224304 0.03916402906179428 -0.25434523820877075 4538687 0 -1
-0.1456407606601715 0.038962021470069885 -0.25434988737106323 4538686 0 -1
-0.14563214778900146 0.03876012936234474 -0.25435498356819153 4472893 0 -1
-0.14562346041202545 0.03855827823281288 -0.25435999035835266 4407357 0 -1
-0.14563673734664917 0.03816275671124458 -0.25442346930503845 4538943 0 -1
-0.1456281542778015 0.037961043417453766 -0.2544286847114563 4736321 0 -1
-0.14561960101127625 0.037759386003017426 -0.25443390011787415 4802115 0 -1
-0.14561127126216888 0.03755784407258034 -0.2544395327568054 4867908 0 -1
-0.14563246071338654 0.0373639240860939 -0.2544967234134674 4999493 0 -1
-0.14562396705150604 0.03716239705681801 -0.2545020580291748 5130822 0 -1
-0.14561551809310913 0.03696092963218689 -0.25450748205184937 4999237 0 -1
-0.14560724794864655 0.03675956651568413 -0.2545132040977478 4867908 0 -1
-0.145627960562706 0.03656553104519844 -0.2545696198940277 5130823 0 -1
-0.14561133086681366 0.03616295009851456 -0.25458094477653503 4933444 0 -1
-0.1456032693386078 0.03596179932355881 -0.2545870542526245 4670529 0 -1
-0.14562343060970306 0.035767633467912674 -0.254642516374588 4933444 0 -1
-0.14561529457569122 0.03556651994585991 -0.25464850664138794 5131080 0 -1
-0.1456070989370346 0.035365451127290726 -0.2546543776988983 5262409 0 -1
-0.14559902250766754 0.03516445681452751 -0.2546604573726654 5328202 0 -1
-0.14559106528759003 0.03496354818344116 -0.254666805267334 5262409 0 -1
-0.1455831676721573 0.03476269543170929 -0.25467318296432495 5262409 0 -1
-0.14560258388519287 0.034568384289741516 -0.2547273635864258 5196616 0 -1
-0.14559470117092133 0.034367602318525314 -0.2547338306903839 5131081 0 -1
-0.14558683335781097 0.03416686877608299 -0.25474026799201965 5394253 0 -1
-0.14557912945747375 0.03396623209118843 -0.25474703311920166 5591631 0 -1
-0.14559802412986755 0.033771812915802 -0.25480037927627563 5591631 0 -1
-0.14559032022953033 0.03357122838497162 -0.25480711460113525 5591375 0 -1
-0.1455826312303543 0.03337070718407631 -0.25481390953063965 5459788 0 -1
-0.14559341967105865 0.03297572210431099 -0.25487327575683594 5131337 0 -1
-0.1455857753753662 0.03277532011270523 -0.2548801600933075 5196873 0 -1
-0.14557822048664093 0.032574985176324844 -0.254887193441391 5591374 0 -1
-0.1455707848072052 0.03237472474575043 -0.2548944354057312 5788752 0 -1
-0.14558865129947662 0.03218011185526848 -0.2549459934234619 5657167 0 -1
-0.14558112621307373 0.031979888677597046 -0.2549530863761902 5657167 0 -1
-0.14580503106117249 0.03183024749159813 -0.2553654909133911 5854803 0 -1
-0.14556646347045898 0.03157969191670418 -0.25496795773506165 6051925 0 -1
-0.14579057693481445 0.03142955154180527 -0.2553807497024536 6117718 0 -1
-0.14556904137134552 0.030984975397586823 -0.2550332546234131 6117461 0 -1
-0.14579345285892487 0.030834073200821877 -0.25544676184654236 6051411 0 -1
-0.14555492997169495 0.030585311353206635 -0.2550491690635681 5788496 0 -1
-0.14557167887687683 0.030390510335564613 -0.25509876012802124 5722960 0 -1
-0.14555740356445312 0.02999102883040905 -0.2551143169403076 5986132 0 -1
-0.14557375013828278 0.029796168208122253 -0.2551632821559906 5788753 0 -1
-0.14556659758090973 0.029596511274576187 -0.2551710605621338 5591374 0 -1
-0.14555959403514862 0.02939693070948124 -0.2551790773868561 5328459 0 -1
-0.1455526351928711 0.029197407886385918 -0.25518718361854553 5262666 0 -1
-0.14556153118610382 0.0288030207157135 -0.2552434206008911 5327945 0 -1
-0.14555469155311584 0.028603630140423775 -0.2552517056465149 5130824 0 -1
-0.145548015832901 0.028404327109456062 -0.2552603483200073 4933701 0 -1
-0.14554129540920258 0.02820505201816559 -0.2552688717842102 4736322 0 -1
-0.14554975926876068 0.02781083807349205 -0.2553243637084961 4604736 0 -1
-0.14554327726364136 0.027611717581748962 -0.2553333342075348 4801859 0 -1
-0.14553673565387726 0.027412638068199158 -0.25534218549728394 4999238 0 -1
-0.1455303430557251 0.027213631197810173 -0.2553512752056122 4999237 0 -1
-0.145538330078125 0.026819586753845215 -0.255405992269516 4736322 0 -1
-0.14553199708461761 0.02662069909274578 -0.2554152011871338 4736322 0 -1
-0.14552581310272217 0.026421884074807167 -0.2554246783256531 4801858 0 -1
-0.14553987979888916 0.02622676081955433 -0.2554697096347809 4801858 0 -1
-0.14552734792232513 0.02582927979528904 -0.25548842549324036 4210235 0 -1
-0.14554105699062347 0.025634121149778366 -0.255532830953598 4078648 0 -1
-0.14553481340408325 0.025435470044612885 -0.25554224848747253 4012599 0 -1
-0.1455286294221878 0.02523687481880188 -0.2555517554283142 4078392 0 -1
-0.14552250504493713 0.025038329884409904 -0.25556132197380066 4209978 0 -1
-0.14552956819534302 0.024644654244184494 -0.2556144595146179 4341821 0 -1
-0.14552369713783264 0.024446263909339905 -0.2556245028972626 4341821 0 -1
-0.1455177664756775 0.02424790896475315 -0.25563445687294006 4341565 0 -1
-0.1455119550228119 0.02404961735010147 -0.25564461946487427 4670786 0 -1
-0.14551866054534912 0.023656146600842476 -0.2556971311569214 5131080 0 -1
-0.1455129235982895 0.023457976058125496 -0.25570741295814514 5131079 0 -1
-0.14550714194774628 0.0232598427683115 -0.2557176649570465 5393995 0 -1
-0.14550162851810455 0.02306179143488407 -0.2557283043861389 5657423 0 -1
-0.14551351964473724 0.022866524755954742 -0.25576961040496826 5723216 0 -1
-0.14550800621509552 0.022668540477752686 -0.25578030943870544 5723216 0 -1
-0.14550244808197021 0.022470591589808464 -0.25579091906547546 9605004 0 -1
-0.14549711346626282 0.02227271907031536 -0.2558019161224365 13881806 0 -1
-0.14550849795341492 0.02207743003964424 -0.25584232807159424 13881806 0 -1
-0.14549775421619415 0.02168184518814087 -0.2558642029762268 10131605 0 -1
-0.1455087661743164 0.021486537531018257 -0.2559039294719696 6644319 0 -1
-0.145503431558609 0.021288838237524033 -0.25591498613357544 6117975 0 -1
-0.14549820125102997 0.021091192960739136 -0.2559261620044708 5722961 0 -1
-0.1454930603504181 0.020893605425953865 -0.25593751668930054 5788754 0 -1
-0.1454983502626419 0.020500753074884415 -0.25598764419555664 5723217 0 -1
-0.145493283867836 0.020303281024098396 -0.2559990882873535 5591631 0 -1
-0.14548833668231964 0.020105864852666855 -0.2560108006000519 5591631 0 -1
-0.14548838138580322 0.0195158738642931 -0.256072074174881 5394252 0 -1
-0.14548364281654358 0.019318636506795883 -0.256084144115448 5459788 0 -1
-0.14547893404960632 0.0191214419901371 -0.2560962736606598 5525324 0 -1
-0.14548833668231964 0.01892612688243389 -0.25613322854042053 5328459 0 -1
-0.14548349380493164 0.01872898079454899 -0.2561451196670532 5262666 0 -1
-0.14547887444496155 0.018531905487179756 -0.25615739822387695 5393996 0 -1
-0.14548788964748383 0.01833658665418625 -0.25619369745254517 5525581 0 -1
-0.14548327028751373 0.018139570951461792 -0.2562059760093689 5656910 0 -1
-0.14547863602638245 0.01794259622693062 -0.25621822476387024 5656910 0 -1
-0.14547818899154663 0.017353519797325134 -0.2562786936759949 4999494 0 -1
-0.14547379314899445 0.01715672016143799 -0.25629135966300964 4802115 0 -1
-0.14546959102153778 0.01695997826755047 -0.2563043534755707 4802115 0 -1
-0.14546535909175873 0.016763275489211082 -0.2563173174858093 4801858 0 -1
-0.14547324180603027 0.01656799204647541 -0.25635164976119995 4736322 0 -1
-0.14546886086463928 0.016371335834264755 -0.2563643455505371 4670529 0 -1
-0.14546488225460052 0.016174763441085815 -0.2563777565956116 4736065 0 -1
-0.14546088874340057 0.01597822830080986 -0.25639113783836365 4670273 0 -1
-0.1454569399356842 0.015781739726662636 -0.2564046382904053 4538944 0 -1
-0.14546017348766327 0.015390049666166306 -0.25645115971565247 4275771 0 -1
-0.14545635879039764 0.015193676576018333 -0.2564648687839508 4144186 0 -1
-0.14545264840126038 0.014997351914644241 -0.25647878646850586 4078649 0 -1
-0.1454593986272812 0.01480212714523077 -0.25651106238365173 4144186 0 -1
-0.14545567333698273 0.014605863019824028 -0.2565249502658844 4407101 0 -1
-0.14545847475528717 0.014214450493454933 -0.2565707564353943 4670529 0 -1
-0.1454547643661499 0.01401828695088625 -0.25658461451530457 4802115 0 -1
-0.1454477608203888 0.013626116327941418 -0.2566131353378296 4867908 0 -1
-0.14545011520385742 0.013234946876764297 -0.256658136844635 5131080 0 -1
-0.1454467624425888 0.013038993813097477 -0.2566727101802826 5196616 0 -1
-0.14544881880283356 0.012647958472371101 -0.25671714544296265 5196873 0 -1
-0.14544552564620972 0.012452111579477787 -0.2567318081855774 5196873 0 -1
-0.14544233679771423 0.01225630845874548 -0.2567465901374817 5262152 0 -1
-0.1454392373561859 0.012060550041496754 -0.2567615509033203 5262409 0 -1
-0.1452055722475052 0.011065675877034664 -0.2564510405063629 5986132 0 -1
-0.14520251750946045 0.0108704324811697 -0.2564660906791687 6117718 0 -1
-0.1451997607946396 0.01067524403333664 -0.2564815878868103 6183511 0 -1
-0.14519710838794708 0.010480104014277458 -0.256497323513031 6051925 0 -1
-0.1451982706785202 0.01009037159383297 -0.2565401792526245 5722960 0 -1
-0.14519552886486053 0.009895320050418377 -0.2565557360649109 5722960 0 -1
-0.145191490650177 0.009115896187722683 -0.25663021206855774 6117974 0 -1
-0.14518912136554718 0.008921034634113312 -0.25664642453193665 6117974 0 -1
-0.14518681168556213 0.00872620940208435 -0.2566627562046051 6183510 0 -1
-0.1451895833015442 0.008531716652214527 -0.25668802857398987 6183253 0 -1
-0.14518748223781586 0.00833696499466896 -0.2567046880722046 6182996 0 -1
-0.14518773555755615 0.007947806268930435 -0.25674596428871155 6117461 0 -1
-0.14518554508686066 0.007753145415335894 -0.2567625045776367 6051925 0 -1
-0.14518152177333832 0.006975061725825071 -0.2568369507789612 5394252 0 -1
-0.14517971873283386 0.006780580617487431 -0.25685417652130127 5262666 0 -1
-0.14517949521541595 0.006391862407326698 -0.256894588470459 5328202 0 -1
-0.14517755806446075 0.006197468843311071 -0.25691157579421997 5525324 0 -1
-0.14517703652381897 0.005808912217617035 -0.2569514214992523 5393738 0 -1
-0.1451754868030548 0.005614628084003925 -0.2569690942764282 4999237 0 -1
-0.1451738327741623 0.005420369561761618 -0.256986528635025 4670273 0 -1
-0.1451716274023056 0.004837882239371538 -0.2570438086986542 5065030 0 -1
-0.14517030119895935 0.004643760621547699 -0.2570618689060211 4933700 0 -1
-0.14516912400722504 0.0044496734626591206 -0.25708016753196716 4736322 0 -1
-0.14516916871070862 0.0042556533589959145 -0.2571006119251251 4736322 0 -1
-0.14516794681549072 0.004061625339090824 -0.2571188509464264 4736578 0 -1
-0.14516571164131165 0.003673667088150978 -0.2571556568145752 4538687 0 -1
-0.14516490697860718 0.003479741280898452 -0.25717464089393616 4407357 0 -1
-0.14516179263591766 0.0027043367736041546 -0.25725066661834717 4538686 0 -1
-0.1451609581708908 0.002510558580979705 -0.25726956129074097 4472894 0 -1
-0.14515969157218933 0.0021230969578027725 -0.25730806589126587 4736065 0 -1
-0.1451583206653595 0.0019294001394882798 -0.25732600688934326 4933444 0 -1
-0.14515769481658936 0.0017357433680444956 -0.2573452889919281 5065031 0 -1
-0.14515714347362518 0.0015421162825077772 -0.2573646605014801 5065030 0 -1
-0.14515213668346405 0.0005744051886722445 -0.2574576437473297 5130823 0 -1
-0.1451517939567566 0.0003809546469710767 -0.25747740268707275 5065286 0 -1
-0.14515160024166107 -0.0000058616051319404505 -0.2575177848339081 5393995 0 -1
-0.1451488733291626 -0.00039256084710359573 -0.25755369663238525 5723216 0 -1
-0.14514890313148499 -0.0005858697695657611 -0.25757408142089844 5854801 0 -1
-0.14514277875423431 -0.001551939989440143 -0.2576650083065033 11967534 0 -1
-0.14514300227165222 -0.0017450799932703376 -0.25768575072288513 11375921 0 -1
-0.14514382183551788 -0.00213128631003201 -0.2577279210090637 6774866 0 -1
-0.1451445370912552 -0.002324354834854603 -0.2577495276927948 6314836 0 -1
-0.1451403647661209 -0.0025173139292746782 -0.25776249170303345 6578002 0 -1
-0.14514093101024628 -0.002710322616621852 -0.25778380036354065 8418120 0 -1
-0.14513958990573883 -0.0036748782731592655 -0.25788313150405884 7892031 0 -1
-0.14513462781906128 -0.0038675812538713217 -0.2578946650028229 6182982 0 -1
-0.14513656497001648 -0.004253213759511709 -0.2579387426376343 5131080 0 -1
-0.14513231813907623 -0.004638551268726587 -0.257971853017807 5130824 0 -1
-0.1451333612203598 -0.004831276368349791 -0.25799405574798584 5130823 0 -1
-0.14513307809829712 -0.00579432025551796 -0.2580951750278473 5065287 0 -1
-0.14512990415096283 -0.00637168949469924 -0.25815048813819885 4801858 0 -1
-0.14512494206428528 -0.006756321527063847 -0.25818225741386414 4867907 0 -1
-0.14512664079666138 -0.0069487872533500195 -0.2582055628299713 4933444 0 -1
-0.14512716233730316 -0.007910349406301975 -0.2583080232143402 4801859 0 -1
-0.1451239287853241 -0.008486759848892689 -0.25836312770843506 4736065 0 -1
-0.14512626826763153 -0.00867904257029295 -0.25838762521743774 4802114 0 -1
-0.14511825144290924 -0.008870670571923256 -0.2583935856819153 4933444 0 -1
-0.1451205462217331 -0.00906289555132389 -0.2584179937839508 4867651 0 -1
-0.1451195776462555 -0.00983089953660965 -0.2584973871707916 4867908 0 -1
-0.14512208104133606 -0.010023023001849651 -0.2585221230983734 4999238 0 -1
-0.1451159566640854 -0.010406408458948135 -0.2585517466068268 4801859 0 -1
-0.14511877298355103 -0.01059847790747881 -0.25857704877853394 4736066 0 -1
-0.14511226117610931 -0.01098164264112711 -0.25860595703125 4670530 0 -1
-0.14511516690254211 -0.011173645034432411 -0.2586314082145691 4867652 0 -1
-0.14510469138622284 -0.012131290510296822 -0.25871405005455017 5196873 0 -1
-0.14511439204216003 -0.01270688883960247 -0.25879204273223877 5131080 0 -1
-0.14510735869407654 -0.0130893150344491 -0.2588200271129608 4999494 0 -1
-0.1451108455657959 -0.013281113468110561 -0.2588464617729187 5393995 0 -1
-0.14509956538677216 -0.014237035997211933 -0.25892752408981323 5788753 0 -1
-0.1451033651828766 -0.01442872453480959 -0.25895455479621887 5854289 0 -1
-0.1451111137866974 -0.01481206901371479 -0.25900882482528687 5722703 0 -1
-0.14510329067707062 -0.015193717554211617 -0.2590353190898895 5657167 0 -1
-0.14510738849639893 -0.015385334379971027 -0.25906285643577576 5722703 0 -1
-0.14509554207324982 -0.016339542344212532 -0.25914275646209717 5394252 0 -1
-0.145099937915802 -0.01653105951845646 -0.2591708302497864 5328459 0 -1
-0.1451089233160019 -0.016914065927267075 -0.25922727584838867 5196616 0 -1
-0.14509271085262299 -0.018438875675201416 -0.2593599259853363 4670529 0 -1
-0.14509758353233337 -0.018630219623446465 -0.25938880443573 4736322 0 -1
-0.1450885385274887 -0.019010404124855995 -0.2594130039215088 5065030 0 -1
-0.1450936645269394 -0.019201716408133507 -0.25944238901138306 5130566 0 -1
-0.14509643614292145 -0.020726269111037254 -0.25960877537727356 5065029 0 -1
-0.14508689939975739 -0.021105658262968063 -0.25963205099105835 4933701 0 -1
-0.1450926810503006 -0.021296845749020576 -0.25966256856918335 4867908 0 -1
-0.14509069919586182 -0.02262820117175579 -0.25980013608932495 4999494 0 -1
-0.14509694278240204 -0.022819312289357185 -0.2598314881324768 4999494 0 -1
-0.14508669078350067 -0.02319786511361599 -0.25985345244407654 5131080 0 -1
-0.14509306848049164 -0.0233889352530241 -0.2598850131034851 5196616 0 -1
-0.14508269727230072 -0.02376725897192955 -0.2599067687988281 5196617 0 -1
-0.14508919417858124 -0.02395828627049923 -0.2599385678768158 5328203 0 -1
-0.1450987160205841 -0.02490934357047081 -0.26005640625953674 5723217 0 -1
-0.1450948864221573 -0.02547803334891796 -0.2601099908351898 5328203 0 -1
-0.14509457349777222 -0.028131697326898575 -0.2603914439678192 4933701 0 -1
-0.1452210247516632 0.04389403015375137 -0.2535106837749481 4604737 0 -1
-0.1449490189552307 0.04361221566796303 -0.2530558109283447 4604737 0 -1
-0.14519216120243073 0.043285567313432693 -0.25352030992507935 4736322 0 -1
-0.14518271386623383 0.04308290034532547 -0.2535238265991211 4933702 0 -1
-0.14517317712306976 0.042880263179540634 -0.2535271644592285 4999495 0 -1
-0.1451638638973236 0.042677752673625946 -0.25353091955184937 5065030 0 -1
-0.14517897367477417 0.042282700538635254 -0.25359731912612915 5394251 0 -1
-0.14516960084438324 0.04208027943968773 -0.25360098481178284 5328202 0 -1
-0.14516043663024902 0.04187798127532005 -0.2536050081253052 5196616 0 -1
-0.14518438279628754 0.041685234755277634 -0.2536669075489044 5262666 0 -1
-0.145175039768219 0.04148293286561966 -0.2536706030368805 5394252 0 -1
-0.14515675604343414 0.04107861965894699 -0.25367873907089233 5196616 0 -1
-0.14537639915943146 0.04094097390770912 -0.25408267974853516 4999750 0 -1
-0.14539973437786102 0.040747735649347305 -0.2541435658931732 4868165 0 -1
-0.14538171887397766 0.04034319892525673 -0.25415223836898804 4604480 0 -1
-0.1453729122877121 0.040141064673662186 -0.2541569471359253 4670273 0 -1
-0.14515775442123413 0.03968294709920883 -0.25382089614868164 4801858 0 -1
-0.14514893293380737 0.039481233805418015 -0.2538255453109741 4736066 0 -1
-0.145162433385849 0.03908636420965195 -0.2538893222808838 4275515 0 -1
-0.14537404477596283 0.03874432295560837 -0.25429970026016235 4538686 0 -1
-0.14536529779434204 0.03854253888130188 -0.25430452823638916 4538943 0 -1
-0.1453784853219986 0.03814717009663582 -0.2543678283691406 4736321 0 -1
-0.14536994695663452 0.03794555366039276 -0.25437304377555847 4802114 0 -1
-0.14536143839359283 0.03774399682879448 -0.2543782889842987 4736578 0 -1
-0.14535298943519592 0.03754250705242157 -0.2543836534023285 4736321 0 -1
-0.14536558091640472 0.03714720904827118 -0.25444597005844116 4999493 0 -1
-0.14535735547542572 0.036945890635252 -0.254451721906662 4801858 0 -1
-0.1453489065170288 0.03674456477165222 -0.25445711612701416 4670272 0 -1
-0.14536957442760468 0.0365506149828434 -0.2545134425163269 4867651 0 -1
-0.14535290002822876 0.03614819049835205 -0.2545245885848999 4867908 0 -1
-0.1453447937965393 0.03594711422920227 -0.25453054904937744 4802115 0 -1
-0.14536495506763458 0.0357530415058136 -0.25458604097366333 5131079 0 -1
-0.14535671472549438 0.035551995038986206 -0.25459176301956177 5328459 0 -1
-0.1453486531972885 0.035351041704416275 -0.25459784269332886 5328459 0 -1
-0.14533266425132751 0.034949325025081635 -0.25461024045944214 5328459 0 -1
-0.14532475173473358 0.03474855050444603 -0.25461652874946594 5328459 0 -1
-0.14534415304660797 0.03455432876944542 -0.2546707093715668 5328459 0 -1
-0.14532825350761414 0.03415295481681824 -0.254683256149292 5525838 0 -1
-0.14532051980495453 0.033952392637729645 -0.25468990206718445 5657424 0 -1
-0.14533939957618713 0.03375806286931038 -0.25474321842193604 5525838 0 -1
-0.14533168077468872 0.03355756774544716 -0.2547498941421509 5525581 0 -1
-0.1453239619731903 0.03335712105035782 -0.2547565996646881 5591373 0 -1
-0.14533481001853943 0.03296233341097832 -0.2548159956932068 5591374 0 -1
-0.14532706141471863 0.03276199847459793 -0.25482267141342163 5591374 0 -1
-0.1453193724155426 0.03256171569228172 -0.25482937693595886 5657423 0 -1
-0.14531196653842926 0.032361552119255066 -0.25483664870262146 5657167 0 -1
-0.1453222781419754 0.03196689486503601 -0.2548951804637909 5394252 0 -1
-0.1453147977590561 0.03176682069897652 -0.25490233302116394 5591631 0 -1
-0.14530760049819946 0.03156685829162598 -0.2549099326133728 5854546 0 -1
-0.14530028402805328 0.03136691823601723 -0.25491729378700256 6051924 0 -1
-0.145310178399086 0.030972419306635857 -0.25497516989707947 6051411 0 -1
-0.14530299603939056 0.030772622674703598 -0.2549828290939331 5919825 0 -1
-0.14529575407505035 0.030572861433029175 -0.2549903988838196 5722960 0 -1
-0.14531250298023224 0.030378159135580063 -0.2550400197505951 5788497 0 -1
-0.14529141783714294 0.0297793410718441 -0.2550637722015381 5854289 0 -1
-0.14530761539936066 0.029584558680653572 -0.25511249899864197 5657167 0 -1
-0.14530065655708313 0.029385078698396683 -0.25512057542800903 5525838 0 -1
-0.1452936828136444 0.029185637831687927 -0.25512856245040894 5459788 0 -1
-0.14528010785579681 0.028786981478333473 -0.2551453113555908 5328202 0 -1
-0.14529567956924438 0.028592124581336975 -0.25519293546676636 5130824 0 -1
-0.14505751430988312 0.028347661718726158 -0.2547948658466339 4999494 0 -1
-0.14505912363529205 0.027755366638302803 -0.25485849380493164 4801859 0 -1
-0.1450524628162384 0.02755662240087986 -0.2548670470714569 4736065 0 -1
-0.14527742564678192 0.02740161120891571 -0.25528261065483093 4670529 0 -1
-0.1450394093990326 0.027159320190548897 -0.25488463044166565 4670273 0 -1
-0.14504750072956085 0.026766102761030197 -0.25493937730789185 4670272 0 -1
-0.14504091441631317 0.026567574590444565 -0.25494804978370667 4670272 0 -1
-0.14526638388633728 0.026411281898617744 -0.25536468625068665 4670272 0 -1
-0.14502844214439392 0.02617078460752964 -0.25496670603752136 4670016 0 -1
-0.14526797831058502 0.02581896260380745 -0.2554284334182739 4407357 0 -1
-0.14526177942752838 0.025620391592383385 -0.2554378807544708 4407357 0 -1
-0.1452753245830536 0.025425316765904427 -0.2554819881916046 4407100 0 -1
-0.14526914060115814 0.025226814672350883 -0.2554914653301239 4341564 0 -1
-0.14526306092739105 0.025028372183442116 -0.2555011212825775 4275771 0 -1
-0.14503811299800873 0.024595530703663826 -0.2551460266113281 4473408 0 -1
-0.14526408910751343 0.024436550214886665 -0.255563884973526 4407358 0 -1
-0.14525814354419708 0.024238282814621925 -0.25557374954223633 4144442 0 -1
-0.14525234699249268 0.024040082469582558 -0.25558388233184814 4539200 0 -1
-0.14525899291038513 0.02364679053425789 -0.2556362450122833 5196872 0 -1
-0.1452532261610031 0.023448707535862923 -0.2556464672088623 5196872 0 -1
-0.14524763822555542 0.023250693455338478 -0.2556569576263428 5196872 0 -1
-0.14524208009243011 0.023052731528878212 -0.2556675374507904 5196616 0 -1
-0.1452540010213852 0.022857557982206345 -0.25570884346961975 5393995 0 -1
-0.14524824917316437 0.022659625858068466 -0.25571906566619873 5591631 0 -1
-0.1452428698539734 0.022461794316768646 -0.25572991371154785 9539211 0 -1
-0.1452375054359436 0.022264013066887856 -0.25574085116386414 13881806 0 -1
-0.1450163722038269 0.022033490240573883 -0.2553717792034149 13881549 0 -1
-0.14523807168006897 0.021673405542969704 -0.2558028995990753 10065555 0 -1
-0.14500024914741516 0.021441396325826645 -0.25540435314178467 6512733 0 -1
-0.1450059562921524 0.021049270406365395 -0.25545504689216614 5657168 0 -1
-0.1450006514787674 0.020852066576480865 -0.2554660439491272 5657424 0 -1
-0.1450059413909912 0.020460030063986778 -0.25551605224609375 5591631 0 -1
-0.14523351192474365 0.02029547467827797 -0.255937397480011 5525838 0 -1
-0.14522844552993774 0.020098136737942696 -0.25594884157180786 5591374 0 -1
-0.14522361755371094 0.01990087330341339 -0.25596070289611816 5591374 0 -1
-0.1452285498380661 0.01950843259692192 -0.25601014494895935 5262667 0 -1
-0.14522378146648407 0.01931128092110157 -0.2560220956802368 5459788 0 -1
-0.145219087600708 0.019114181399345398 -0.2560341954231262 5525581 0 -1
-0.14499548077583313 0.01888860948383808 -0.2556603252887726 5394252 0 -1
-0.14522360265254974 0.01872190274298191 -0.2560829222202301 5262924 0 -1
-0.14499497413635254 0.018300281837582588 -0.25572046637535095 5525582 0 -1
-0.14498566091060638 0.017907101660966873 -0.25574472546577454 5393995 0 -1
-0.14498507976531982 0.01731923408806324 -0.25580477714538574 4999494 0 -1
-0.14498069882392883 0.017122842371463776 -0.25581738352775574 4933701 0 -1
-0.14497621357440948 0.0169264767318964 -0.2558298408985138 4736322 0 -1
-0.14497214555740356 0.01673020049929619 -0.25584298372268677 4604736 0 -1
-0.1449757218360901 0.01633908785879612 -0.25589004158973694 4802115 0 -1
-0.1449715495109558 0.01614290289580822 -0.255903035402298 4670528 0 -1
-0.14496749639511108 0.01594676822423935 -0.25591620802879333 4538943 0 -1
-0.1449636071920395 0.015750693157315254 -0.25592970848083496 4538943 0 -1
-0.14496684074401855 0.015359824523329735 -0.255976140499115 4407358 0 -1
-0.14496293663978577 0.015163848176598549 -0.25598961114883423 4341564 0 -1
-0.1449592560529709 0.014967934228479862 -0.2560034692287445 4275771 0 -1
-0.14496596157550812 0.014773116447031498 -0.256035715341568 4210235 0 -1
-0.14496223628520966 0.014577257446944714 -0.2560494542121887 4275771 0 -1
-0.1449647694826126 0.014186639338731766 -0.25609469413757324 4538943 0 -1
-0.1449611932039261 0.013990896753966808 -0.25610870122909546 4670529 0 -1
-0.144954115152359 0.013599535450339317 -0.256136953830719 4933701 0 -1
-0.1449563205242157 0.01320917159318924 -0.2561815679073334 5130823 0 -1
-0.1449529379606247 0.013013624586164951 -0.256195992231369 5196616 0 -1
-0.14494648575782776 0.012622668407857418 -0.2562253177165985 5196359 0 -1
-0.1449517011642456 0.01242797076702118 -0.2562548816204071 5196616 0 -1
-0.14494846761226654 0.012232571840286255 -0.25626954436302185 5327945 0 -1
-0.14494533836841583 0.012037218548357487 -0.25628435611724854 5327945 0 -1
-0.14494238793849945 0.011841918341815472 -0.25629952549934387 5262409 0 -1
-0.144945427775383 0.011062205769121647 -0.2563863694667816 5854289 0 -1
-0.1449424922466278 0.010867065750062466 -0.25640156865119934 5985875 0 -1
-0.14493976533412933 0.010671976953744888 -0.2564171254634857 6051924 0 -1
-0.14493702352046967 0.010476921685039997 -0.2564326226711273 6051668 0 -1
-0.14493808150291443 0.010087374597787857 -0.25647521018981934 5854546 0 -1
-0.1449355185031891 0.00989242922514677 -0.2564910650253296 5854546 0 -1
-0.14493125677108765 0.009113374166190624 -0.25656500458717346 6052181 0 -1
-0.14492887258529663 0.008918605744838715 -0.2565811276435852 6117718 0 -1
-0.1449267417192459 0.008723887614905834 -0.25659772753715515 6117718 0 -1
-0.14492949843406677 0.008529490791261196 -0.25662297010421753 6183510 0 -1
-0.14492720365524292 0.008334822952747345 -0.2566392719745636 6314839 0 -1
-0.14492745697498322 0.007945857010781765 -0.25668051838874817 6051668 0 -1
-0.14492541551589966 0.007751298602670431 -0.25669723749160767 5985875 0 -1
-0.14492139220237732 0.006973598152399063 -0.2567715644836426 5394252 0 -1
-0.14491954445838928 0.006779210176318884 -0.2567886710166931 5262667 0 -1
-0.14491909742355347 0.006390674971044064 -0.2568286061286926 5262666 0 -1
-0.14491736888885498 0.006196386180818081 -0.2568458914756775 5328459 0 -1
-0.144916832447052 0.0058080218732357025 -0.25688567757606506 5262666 0 -1
-0.14491517841815948 0.005613829009234905 -0.25690311193466187 5065287 0 -1
-0.14491358399391174 0.005419669672846794 -0.25692063570022583 4867908 0 -1
-0.14491137862205505 0.004837470594793558 -0.25697779655456543 5065287 0 -1
-0.14490996301174164 0.0046434421092271805 -0.25699564814567566 4999237 0 -1
-0.14490866661071777 0.004449448082596064 -0.2570136785507202 4867908 0 -1
-0.14490874111652374 0.0042555262334644794 -0.25703418254852295 4802115 0 -1
-0.14490766823291779 0.004061598796397448 -0.2570526599884033 4736321 0 -1
-0.14490541815757751 0.0036738337948918343 -0.25708937644958496 4736322 0 -1
-0.1449045091867447 0.0034800018183887005 -0.25710809230804443 4670272 0 -1
-0.1449013203382492 0.002704982878640294 -0.25718382000923157 4538687 0 -1
-0.1449006199836731 0.002511303871870041 -0.25720295310020447 4538687 0 -1
-0.14489935338497162 0.0021240366622805595 -0.2572413980960846 4801858 0 -1
-0.1448979526758194 0.0019304363522678614 -0.2572592496871948 4998980 0 -1
-0.14489726722240448 0.0017368756234645844 -0.2572783827781677 5130823 0 -1
-0.14489679038524628 0.0015433465596288443 -0.2572978734970093 5065031 0 -1
-0.14489158987998962 0.0005761200445704162 -0.2573903203010559 5262408 0 -1
-0.1448913812637329 0.00038276740815490484 -0.25741028785705566 5196616 0 -1
-0.14489103853702545 -0.000003854244823742192 -0.2574503421783447 5459788 0 -1
-0.14488837122917175 -0.00039035853114910424 -0.2574862539768219 5722703 0 -1
-0.1448885053396225 -0.0005835703341290355 -0.2575068473815918 5788751 0 -1
-0.14488235116004944 -0.0015491527738049626 -0.2575974762439728 12098861 0 -1
-0.14488255977630615 -0.001742195338010788 -0.2576182186603546 11507247 0 -1
-0.14488348364830017 -0.0021282073576003313 -0.25766047835350037 6840399 0 -1
-0.14487993717193604 -0.002514038234949112 -0.257694810628891 6709332 0 -1
-0.14488044381141663 -0.0027069482021033764 -0.25771600008010864 8418378 0 -1
-0.14487913250923157 -0.003671016078442335 -0.2578152120113373 7957821 0 -1
-0.14487415552139282 -0.003863620338961482 -0.25782665610313416 6117187 0 -1
-0.14487607777118683 -0.004249056801199913 -0.2578706741333008 5130824 0 -1
-0.14487183094024658 -0.0046341982670128345 -0.25790372490882874 5196617 0 -1
-0.1448730081319809 -0.004826829303056002 -0.2579261064529419 5196873 0 -1
-0.1448693871498108 -0.006366450805217028 -0.25808191299438477 4999236 0 -1
-0.14486446976661682 -0.006750888656824827 -0.25811371207237244 5130822 0 -1
-0.14486604928970337 -0.006943251006305218 -0.2581368088722229 5130566 0 -1
-0.14486342668533325 -0.008480439893901348 -0.2582942545413971 4538942 0 -1
-0.1448577493429184 -0.008864153176546097 -0.25832465291023254 4736322 0 -1
-0.14486002922058105 -0.009056277573108673 -0.2583489716053009 4736322 0 -1
-0.14485026895999908 -0.01001512911170721 -0.2584327757358551 5064773 0 -1
-0.14485543966293335 -0.010399098508059978 -0.2584824860095978 4604736 0 -1
-0.14485827088356018 -0.010591072030365467 -0.25850778818130493 4538943 0 -1
-0.1446104496717453 -0.012103528715670109 -0.25822705030441284 5394252 0 -1
-0.1446201652288437 -0.012677907943725586 -0.25830498337745667 5328202 0 -1
-0.14461320638656616 -0.013059522956609726 -0.25833287835121155 5328203 0 -1
-0.14461666345596313 -0.01325091253966093 -0.25835922360420227 5591374 0 -1
-0.14460548758506775 -0.01420480478554964 -0.25844013690948486 5591375 0 -1
-0.144609272480011 -0.01439608447253704 -0.25846704840660095 5591374 0 -1
-0.14461706578731537 -0.0147786196321249 -0.25852128863334656 5722703 0 -1
-0.14461342990398407 -0.015350671485066414 -0.2585752606391907 5393995 0 -1
-0.14460159838199615 -0.016302848234772682 -0.2586548626422882 5460045 0 -1
-0.1446058750152588 -0.016493942588567734 -0.25868263840675354 5328459 0 -1
-0.14461489021778107 -0.016876140609383583 -0.25873905420303345 5130823 0 -1
-0.1446114182472229 -0.017447276040911674 -0.25879326462745667 4867908 0 -1
-0.1445988416671753 -0.01839771308004856 -0.2588713467121124 4802115 0 -1
-0.14460395276546478 -0.018588682636618614 -0.2589006721973419 4802115 0 -1
-0.1445949524641037 -0.01896805688738823 -0.25892478227615356 4999237 0 -1
-0.14459092915058136 -0.019538115710020065 -0.2589779198169708 4670016 0 -1
-0.1446032077074051 -0.020680321380496025 -0.25912055373191833 4867651 0 -1
-0.14459356665611267 -0.021058889105916023 -0.25914350152015686 4999494 0 -1
-0.14459927380084991 -0.02124965935945511 -0.25917384028434753 5065287 0 -1
-0.1445896178483963 -0.021628011018037796 -0.2591967284679413 4999494 0 -1
-0.14482256770133972 -0.02375306375324726 -0.25983572006225586 5262410 0 -1
-0.1448386013507843 -0.024894559755921364 -0.25998517870903015 5657167 0 -1
-0.14483483135700226 -0.025462964549660683 -0.26003873348236084 5460045 0 -1
-0.144811749458313 -0.02754300646483898 -0.26021847128868103 4867909 0 -1
-0.14483463764190674 -0.02811526693403721 -0.26031991839408875 4670529 0 -1
-0.14470157027244568 0.043796736747026443 -0.2529985010623932 4670530 0 -1
-0.14491941034793854 0.043662842363119125 -0.2533993721008301 4604737 0 -1
-0.14493480324745178 0.04326784983277321 -0.2534662187099457 4670786 0 -1
-0.1449253112077713 0.04306524991989136 -0.2534695863723755 4933701 0 -1
-0.14491590857505798 0.04286274313926697 -0.2534731328487396 4999494 0 -1
-0.14490655064582825 0.042660292237997055 -0.25347670912742615 4999237 0 -1
-0.14492163062095642 0.04226541519165039 -0.25354307889938354 5328202 0 -1
-0.1449122428894043 0.04206307604908943 -0.2535466253757477 5196873 0 -1
-0.1449030488729477 0.04186084121465683 -0.25355055928230286 5065287 0 -1
-0.1448938250541687 0.04165865480899811 -0.25355440378189087 5262666 0 -1
-0.14491760730743408 0.041465964168310165 -0.2536160349845886 5591631 0 -1
-0.14512760937213898 0.04112650826573372 -0.25402361154556274 4999493 0 -1
-0.1451186090707779 0.04092423990368843 -0.25402793288230896 4868164 0 -1
-0.14514191448688507 0.04073109105229378 -0.25408875942230225 4802372 0 -1
-0.1451239436864853 0.04032672941684723 -0.2540974020957947 4538687 0 -1
-0.14511500298976898 0.040124643594026566 -0.25410181283950806 4538687 0 -1
-0.14512880146503448 0.03972930088639259 -0.2541661262512207 4670529 0 -1
-0.14511997997760773 0.03952736034989357 -0.2541707456111908 4801858 0 -1
-0.14510250091552734 0.03912368416786194 -0.25418028235435486 4209722 0 -1
-0.1451159566640854 0.038728468120098114 -0.25424402952194214 4538687 0 -1
-0.14510728418827057 0.03852678835391998 -0.2542489469051361 4604480 0 -1
-0.14512048661708832 0.03813160955905914 -0.25431227684020996 4736321 0 -1
-0.14510315656661987 0.03772852197289467 -0.2543220818042755 4670528 0 -1
-0.14509470760822296 0.037527114152908325 -0.2543273866176605 4604735 0 -1
-0.1451074779033661 0.037132054567337036 -0.25439000129699707 4933701 0 -1
-0.1450989544391632 0.03693074360489845 -0.2543952167034149 4736322 0 -1
-0.14509065449237823 0.036729540675878525 -0.2544007897377014 4670272 0 -1
-0.14508241415023804 0.03652840107679367 -0.2544064521789551 4736322 0 -1
-0.14509478211402893 0.03613346815109253 -0.2544684112071991 4933701 0 -1
-0.14508648216724396 0.035932425409555435 -0.2544739544391632 4999494 0 -1
-0.14510664343833923 0.035738445818424225 -0.2545294463634491 5262665 0 -1
-0.14509840309619904 0.0355374850332737 -0.25453516840934753 5460044 0 -1
-0.145090252161026 0.03533659875392914 -0.2545410096645355 5394251 0 -1
-0.1450740545988083 0.03493499755859375 -0.2545529007911682 5328459 0 -1
-0.1450662761926651 0.03473434969782829 -0.25455939769744873 5394252 0 -1
-0.1450856477022171 0.03454021364450455 -0.2546135485172272 5459788 0 -1
-0.14506970345973969 0.0341390036046505 -0.25462591648101807 5526094 0 -1
-0.14506196975708008 0.03393852710723877 -0.25463250279426575 5591631 0 -1
-0.14505429565906525 0.033738113939762115 -0.254639208316803 5525581 0 -1
-0.1450730711221695 0.033543869853019714 -0.25469234585762024 5459788 0 -1
-0.14506535232067108 0.03334350883960724 -0.2546989619731903 5657166 0 -1
-0.14505012333393097 0.032942987978458405 -0.25471261143684387 5788752 0 -1
-0.14506834745407104 0.03274862840771675 -0.25476476550102234 5788752 0 -1
-0.14506080746650696 0.03254846855998039 -0.25477173924446106 5722960 0 -1
-0.14505323767662048 0.03234836086630821 -0.254778653383255 5591631 0 -1
-0.14506351947784424 0.031953874975442886 -0.2548370957374573 5328203 0 -1
-0.14505617320537567 0.031753916293382645 -0.2548443675041199 5460045 0 -1
-0.14504878222942352 0.03155400604009628 -0.25485163927078247 5657424 0 -1
-0.14504151046276093 0.03135416656732559 -0.254859060049057 5985875 0 -1
-0.14505137503147125 0.03095983900129795 -0.25491681694984436 5985875 0 -1
-0.14504408836364746 0.030760105699300766 -0.2549242079257965 5854546 0 -1
-0.14505372941493988 0.030365852639079094 -0.2549816071987152 5788753 0 -1
-0.145039364695549 0.02996671013534069 -0.2549968361854553 6051667 0 -1
-0.14503248035907745 0.029767267405986786 -0.2550049424171448 5854289 0 -1
-0.14504867792129517 0.029572580009698868 -0.25505366921424866 5722960 0 -1
-0.1450415998697281 0.029373159632086754 -0.25506147742271423 5657167 0 -1
-0.14503459632396698 0.029173804447054863 -0.255069375038147 5591374 0 -1
-0.14502108097076416 0.02877533808350563 -0.25508609414100647 5393995 0 -1
-0.14503665268421173 0.028580570593476295 -0.255133718252182 5130824 0 -1
-0.14502988755702972 0.028381425887346268 -0.25514209270477295 5065031 0 -1
-0.14503155648708344 0.027788467705249786 -0.25520581007003784 4867909 0 -1
-0.14502492547035217 0.027589499950408936 -0.2552143931388855 4736066 0 -1
-0.14501835405826569 0.02739059366285801 -0.2552231252193451 4538943 0 -1
-0.14501191675662994 0.027191756293177605 -0.255232036113739 4538686 0 -1
-0.1450200229883194 0.026798097416758537 -0.25528684258461 4538687 0 -1
-0.1450134515762329 0.026599347591400146 -0.2552955448627472 4670015 0 -1
-0.14500722289085388 0.026400703936815262 -0.25530484318733215 4604479 0 -1
-0.1450212448835373 0.026205768808722496 -0.2553498148918152 4604223 0 -1
-0.1450086385011673 0.025808624923229218 -0.255368173122406 4670272 0 -1
-0.1450026035308838 0.025610173121094704 -0.255377858877182 4670272 0 -1
-0.14499638974666595 0.025411732494831085 -0.25538715720176697 4670272 0 -1
-0.1450098305940628 0.025216752663254738 -0.2554311454296112 4538686 0 -1
-0.14500382542610168 0.02501841075718403 -0.2554408311843872 4341564 0 -1
-0.1449919044971466 0.024621881544589996 -0.2554604113101959 4670530 0 -1
-0.14500483870506287 0.024426868185400963 -0.2555035352706909 4473151 0 -1
-0.1449989378452301 0.024228695780038834 -0.25551342964172363 4144186 0 -1
-0.1449929177761078 0.024030553176999092 -0.25552311539649963 4473407 0 -1
-0.1449996381998062 0.023637453094124794 -0.2555755376815796 5196872 0 -1
-0.1449938714504242 0.02343946136534214 -0.2555857002735138 5196873 0 -1
-0.14498814940452576 0.023241518065333366 -0.2555959224700928 5130823 0 -1
-0.14498259127140045 0.023043643683195114 -0.25560644268989563 4999238 0 -1
-0.14499448239803314 0.02284856326878071 -0.255647748708725 5262410 0 -1
-0.14498892426490784 0.02265075221657753 -0.25565820932388306 5591630 0 -1
-0.1449834704399109 0.022453002631664276 -0.25566890835762024 9539211 0 -1
-0.14497791230678558 0.02225528284907341 -0.2556794285774231 13881549 0 -1
-0.14498932659626007 0.022060183808207512 -0.2557198703289032 13816013 0 -1
-0.1449785679578781 0.02166496403515339 -0.25574156641960144 10000019 0 -1
-0.14497321844100952 0.0214674212038517 -0.25575244426727295 6446941 0 -1
-0.14497895538806915 0.02107485570013523 -0.2558031976222992 5722960 0 -1
-0.14497365057468414 0.020877430215477943 -0.25581419467926025 5657424 0 -1
-0.14497898519039154 0.020484955981373787 -0.2558642625808716 5525838 0 -1
-0.1449737697839737 0.02028764598071575 -0.2558753788471222 5460045 0 -1
-0.14496880769729614 0.020090414211153984 -0.255886971950531 5525838 0 -1
-0.14496387541294098 0.019893230870366096 -0.2558986246585846 5591374 0 -1
-0.14496880769729614 0.01950097642838955 -0.255948007106781 5328203 0 -1
-0.14496396481990814 0.019303906708955765 -0.25595974922180176 5460045 0 -1
-0.1449592560529709 0.019106902182102203 -0.2559718191623688 5591374 0 -1
-0.14472642540931702 0.01848817989230156 -0.2556215822696686 5394252 0 -1
-0.1447218954563141 0.01829165779054165 -0.2556338906288147 5459789 0 -1
-0.14471732079982758 0.018095169216394424 -0.25564613938331604 5328203 0 -1
-0.14472602307796478 0.017900362610816956 -0.2556818425655365 5131081 0 -1
-0.14472542703151703 0.017312772572040558 -0.2557417154312134 5065287 0 -1
-0.1447211056947708 0.017116481438279152 -0.25575441122055054 4999494 0 -1
-0.14471668004989624 0.016920218244194984 -0.25576692819595337 4670529 0 -1
-0.1447124183177948 0.016724009066820145 -0.2557796835899353 4538942 0 -1
-0.14471599459648132 0.016333086416125298 -0.2558266818523407 4867907 0 -1
-0.14471197128295898 0.016137009486556053 -0.25583988428115845 4604736 0 -1
-0.14470770955085754 0.015940947458148003 -0.25585266947746277 4472893 0 -1
-0.14470379054546356 0.01574496366083622 -0.25586608052253723 4538943 0 -1
-0.14470702409744263 0.015354283154010773 -0.2559124529361725 4473150 0 -1
-0.14470317959785461 0.015158407390117645 -0.2559260129928589 4407357 0 -1
-0.14470608532428741 0.014767852611839771 -0.2559717893600464 4275771 0 -1
-0.14470244944095612 0.014572098851203918 -0.25598567724227905 4209978 0 -1
-0.14470498263835907 0.014181666076183319 -0.2560308277606964 4472894 0 -1
-0.1447013020515442 0.013986009173095226 -0.2560446560382843 4670529 0 -1
-0.14469416439533234 0.013594831340014935 -0.2560727000236511 4999494 0 -1
-0.1446964591741562 0.0132046639919281 -0.25611740350723267 5196616 0 -1
-0.14469292759895325 0.013009198941290379 -0.25613150000572205 5262152 0 -1
-0.14469510316848755 0.012619185261428356 -0.25617602467536926 5196359 0 -1
-0.14468851685523987 0.012228528968989849 -0.2562049925327301 5327945 0 -1
-0.14468532800674438 0.012033267877995968 -0.25621968507766724 5328202 0 -1
-0.14468111097812653 0.011253248900175095 -0.25629356503486633 5657167 0 -1
-0.14468546211719513 0.01105873379856348 -0.25632163882255554 5722704 0 -1
-0.14468248188495636 0.01086368691176176 -0.25633668899536133 5854289 0 -1
-0.14467965066432953 0.010668685659766197 -0.2563520073890686 5985874 0 -1
-0.14444370567798615 0.010456842370331287 -0.25595423579216003 5985875 0 -1
-0.1446744054555893 0.01027881819754839 -0.25638335943222046 5920339 0 -1
-0.14467813074588776 0.010084380395710468 -0.2564103305339813 5920083 0 -1
-0.1446753591299057 0.009889516048133373 -0.25642576813697815 5920339 0 -1
-0.1446729153394699 0.009694709442555904 -0.25644177198410034 5854803 0 -1
-0.144671231508255 0.00911085307598114 -0.2564997673034668 6051925 0 -1
-0.14443551003932953 0.008901798166334629 -0.25610217452049255 6117718 0 -1
-0.1446717232465744 0.008721859194338322 -0.25654134154319763 6052182 0 -1
-0.14466936886310577 0.008527250029146671 -0.25655749440193176 6183511 0 -1
-0.14466707408428192 0.00833267904818058 -0.25657376646995544 6380632 0 -1
-0.14443397521972656 0.007931089028716087 -0.2562009394168854 6051668 0 -1
-0.14466524124145508 0.007749438285827637 -0.2566314935684204 5920082 0 -1
